# .PCD v0.7 - Point Cloud Data file format
VERSION 0.7
FIELDS x y z
SIZE 4 4 4
TYPE F F F
COUNT 1 1 1
WIDTH 1752
HEIGHT 1
VIEWPOINT 0 0 0 1 0 0 0
POINTS 1752
DATA ascii
19.640999 79.050003 122.88934
19.7609 79.050003 122.8876
19.841299 79.050003 122.8823
19.9216 79.050003 122.8769
20.04125 79.050003 122.8784
20.1621 79.050003 122.8672
20.243 79.050003 122.8555
20.3234 79.050003 122.8502
20.441898 79.050003 122.86425
20.560301 79.050003 122.8783
20.6401 79.050003 122.8793
20.7211 79.050003 122.8676
20.84045 79.050003 122.8722
20.9592 79.050003 122.8831
21.039 79.050003 122.8841
21.1595 79.050003 122.87605
21.2801 79.050003 122.868
21.3599 79.050003 122.869
21.4391 79.050003 122.8763
21.5581 79.050003 122.884
21.6772 79.050003 122.8918
21.7563 79.050003 122.899
21.957701 79.050003 122.88251
22.0774 79.050003 122.8839
22.158501 79.050003 122.8723
22.239599 79.050003 122.8606
22.3596 79.050003 122.85895
22.479 79.050003 122.8635
22.5588 79.050003 122.8645
22.6399 79.050003 122.8528
22.7593 79.050003 122.85745
22.878 79.050003 122.8684
22.9578 79.050003 122.8693
23.0376 79.050003 122.8703
23.156651 79.050003 122.87805
23.2764 79.050003 122.8795
23.356899 79.050003 122.8742
23.436001 79.050003 122.8814
23.555 79.050003 122.88921
23.6754 79.050003 122.8844
23.755199 79.050003 122.8853
23.8351 79.050003 122.8863
23.955151 79.050003 122.8846
24.075899 79.050003 122.8766
24.1572 79.050003 122.8649
24.237 79.050003 122.8659
24.35635 79.050003 122.87054
24.4758 79.050003 122.8751
24.554899 79.050003 122.8824
24.635401 79.050003 122.8771
24.754848 79.050003 122.8817
24.874201 79.050003 122.8863
24.954 79.050003 122.8873
25.034599 79.050003 122.882
25.1555 79.050003 122.87395
25.278601 79.050003 122.847
25.3577 79.050003 122.8543
25.4375 79.050003 122.8553
25.558399 79.050003 122.84724
25.680099 79.050003 122.8329
25.76 79.050003 122.8339
25.837601 79.050003 122.8538
25.95775 79.050003 122.85215
26.0779 79.050003 122.8505
26.157801 79.050003 122.8514
26.2377 79.050003 122.8524
26.3571 79.050003 122.85706
26.481899 79.050003 122.8175
26.5618 79.050003 122.8185
26.6409 79.050003 122.8257
26.756451 79.050003 122.86195
26.8759 79.050003 122.8666
26.955799 79.050003 122.8675
27.0357 79.050003 122.8685
27.114799 79.050003 122.8758
27.2761 79.050003 122.8652
27.3552 79.050003 122.8725
19.4419 79.150002 122.8838
19.5217 79.150002 122.8848
19.6413 79.150002 122.8862
19.761499 79.150002 122.8813
19.841801 79.150002 122.876
19.922199 79.150002 122.8706
20.041851 79.150002 122.8721
20.162701 79.150002 122.8609
20.242399 79.150002 122.8618
20.320999 79.150002 122.8754
20.4401 79.150002 122.88319
20.560301 79.150002 122.8783
20.6413 79.150002 122.8666
20.759151 79.150002 122.887
20.8794 79.150002 122.8821
20.959801 79.150002 122.8768
21.039 79.150002 122.8841
21.1175 79.150002 122.8976
21.437799 79.150002 122.8889
21.519501 79.150002 122.8709
21.64015 79.150002 122.86285
21.7582 79.150002 122.8801
21.838699 79.150002 122.8747
21.959301 79.150002 122.86674
22.078699 79.150002 122.8713
22.1591 79.150002 122.866
22.239599 79.150002 122.8606
22.358 79.150002 122.87469
22.477699 79.150002 122.8762
22.556801 79.150002 122.8834
22.6373 79.150002 122.8781
22.757599 79.150002 122.8732
22.8773 79.150002 122.8747
22.9585 79.150002 122.863
23.039 79.150002 122.8577
23.15765 79.150002 122.8686
23.2764 79.150002 122.8795
23.356199 79.150002 122.8805
23.436001 79.150002 122.8814
23.555 79.150002 122.88921
23.6754 79.150002 122.8844
23.755199 79.150002 122.8853
23.8344 79.150002 122.8926
23.9548 79.150002 122.88775
24.075199 79.150002 122.8829
24.155001 79.150002 122.8839
24.2356 79.150002 122.8785
24.355999 79.150002 122.8737
24.475 79.150002 122.8814
24.554899 79.150002 122.8824
24.639 79.150002 122.8455
24.7239 79.150002 122.8023
25.0397 79.150002 122.8378
25.158749 79.150002 122.84555
25.2749 79.150002 122.8786
25.3547 79.150002 122.8795
25.438299 79.150002 122.849
25.55805 79.150002 122.8504
25.677799 79.150002 122.8519
25.753901 79.150002 122.8844
25.833 79.150002 122.8917
25.95355 79.150002 122.8869
26.0772 79.150002 122.8568
26.157 79.150002 122.8578
26.2369 79.150002 122.8587
26.356701 79.150002 122.8602
26.4765 79.150002 122.8617
26.5564 79.150002 122.8626
26.636299 79.150002 122.8636
26.75605 79.150002 122.8651
26.8759 79.150002 122.8666
26.955799 79.150002 122.8675
27.0357 79.150002 122.8685
27.156651 79.150002 122.86055
27.2801 79.150002 122.8336
27.356001 79.150002 122.8661
19.363899 79.25 122.8639
19.444799 79.25 122.8523
19.5245 79.25 122.8532
19.64185 79.25 122.8799
19.7603 79.25 122.894
19.8407 79.25 122.8886
19.921 79.25 122.8832
20.04125 79.25 122.8784
20.1609 79.25 122.8798
20.2407 79.25 122.8808
20.320999 79.25 122.8754
20.441 79.25 122.8737
20.5609 79.25 122.872
20.640699 79.25 122.8729
20.720501 79.25 122.8739
20.841702 79.25 122.8596
20.9622 79.25 122.8515
21.042 79.25 122.8525
21.16045 79.25 122.8666
21.278299 79.25 122.8869
21.358101 79.25 122.8879
21.4391 79.25 122.8763
21.5578 79.25 122.88715
21.6784 79.25 122.8791
21.760099 79.25 122.8612
21.840599 79.25 122.8558
21.959301 79.25 122.86674
22.0793 79.25 122.865
22.1598 79.25 122.8597
22.238899 79.25 122.867
22.3573 79.25 122.881
22.4783 79.25 122.8698
22.5588 79.25 122.8645
22.637899 79.25 122.8718
22.757299 79.25 122.87635
22.8773 79.25 122.8747
22.9578 79.25 122.8693
23.0369 79.25 122.8766
23.157299 79.25 122.87175
23.2784 79.25 122.8606
23.3575 79.25 122.8679
23.436001 79.25 122.8814
23.5571 79.25 122.8703
23.6754 79.25 122.8844
23.755899 79.25 122.879
23.836399 79.25 122.8737
23.9569 79.25 122.8688
24.075199 79.25 122.8829
24.154301 79.25 122.8902
24.2349 79.25 122.8848
24.354599 79.25 122.88631
24.4758 79.25 122.8751
24.556299 79.25 122.8698
24.635401 79.25 122.8771
24.718901 79.25 122.8465
24.843 79.25 122.8101
24.962099 79.25 122.8178
25.041901 79.25 122.8188
25.158749 79.25 122.84555
25.278601 79.25 122.847
25.3584 79.25 122.848
25.4375 79.25 122.8553
25.5569 79.25 122.8599
25.677799 79.25 122.8519
25.758499 79.25 122.8465
25.8353 79.25 122.8728
25.95475 79.25 122.87746
26.0741 79.25 122.882
26.153999 79.25 122.883
26.2369 79.25 122.8587
26.357849 79.25 122.85075
26.4781 79.25 122.849
26.557199 79.25 122.8563
26.636299 79.25 122.8636
26.755301 79.25 122.8714
26.8759 79.25 122.8666
26.9566 79.25 122.8612
27.036501 79.25 122.8622
27.15625 79.25 122.86369
27.2761 79.25 122.8652
27.356001 79.25 122.8661
27.434299 79.25 122.8797
19.24395 79.349998 122.86565
19.3633 79.349998 122.8702
19.443001 79.349998 122.8712
19.523399 79.349998 122.8658
19.643 79.349998 122.86729
19.763201 79.349998 122.8624
19.843 79.349998 122.8634
19.922199 79.349998 122.8706
20.040951 79.349998 122.88155
20.161501 79.349998 122.8735
20.2407 79.349998 122.8808
20.3204 79.349998 122.8817
20.440399 79.349998 122.88005
20.559099 79.349998 122.8909
20.6395 79.349998 122.8856
20.75915 79.349998 122.88699
20.879999 79.349998 122.8758
20.961 79.349998 122.8642
21.0408 79.349998 122.8651
21.159201 79.349998 122.8792
21.2801 79.349998 122.868
21.3599 79.349998 122.869
21.439699 79.349998 122.8699
21.559999 79.349998 122.8651
21.6791 79.349998 122.8728
21.7582 79.349998 122.8801
21.837999 79.349998 122.8811
21.958 79.349998 122.87935
22.077999 79.349998 122.8776
22.1572 79.349998 122.8849
22.2383 79.349998 122.8733
22.316799 79.349998 122.8868
22.556801 79.349998 122.8834
22.6373 79.349998 122.8781
22.757299 79.349998 122.87635
22.875299 79.349998 122.8936
22.955799 79.349998 122.8883
23.036301 79.349998 122.8829
23.156651 79.349998 122.87805
23.2777 79.349998 122.8669
23.356899 79.349998 122.8742
23.436001 79.349998 122.8814
23.555351 79.349998 122.88605
23.674 79.349998 122.897
23.754499 79.349998 122.8916
23.8344 79.349998 122.8926
23.955151 79.349998 122.8846
24.075899 79.349998 122.8766
24.155701 79.349998 122.8776
24.2356 79.349998 122.8785
24.35635 79.349998 122.87054
24.4765 79.349998 122.8688
24.555599 79.349998 122.8761
24.634701 79.349998 122.8834
24.754799 79.349998 122.8817
24.878599 79.349998 122.8484
24.958401 79.349998 122.8494
25.0383 79.349998 122.8504
25.156601 79.349998 122.86446
25.2778 79.349998 122.8533
25.3584 79.349998 122.848
25.438299 79.349998 122.849
25.558399 79.349998 122.84724
25.677799 79.349998 122.8519
25.757 79.349998 122.8592
25.8361 79.349998 122.8665
25.9566 79.349998 122.8616
26.0772 79.349998 122.8568
26.157801 79.349998 122.8514
26.241501 79.349998 122.8208
26.3214 79.349998 122.8218
26.441601 79.349998 122.82014
26.561001 79.349998 122.8248
26.6409 79.349998 122.8257
26.759201 79.349998 122.83984
26.8759 79.349998 122.8666
26.955799 79.349998 122.8675
27.036501 79.349998 122.8622
27.155849 79.349998 122.86685
27.279301 79.349998 122.8399
27.356001 79.349998 122.8661
27.435101 79.349998 122.8734
19.4419 79.425003 122.8838
19.523399 79.425003 122.8658
19.644199 79.425003 122.85465
19.7638 79.425003 122.8561
19.843 79.425003 122.8634
19.922199 79.425003 122.8706
20.041851 79.425003 122.8721
20.1621 79.425003 122.8672
20.2407 79.425003 122.8808
20.359699 79.425003 122.8885
20.48 79.425003 122.8837
20.560301 79.425003 122.8783
20.6401 79.425003 122.8793
20.75915 79.425003 122.88699
20.8794 79.425003 122.8821
20.9604 79.425003 122.8705
21.041401 79.425003 122.8588
21.121201 79.425003 122.8598
21.239948 79.425003 122.8707
21.3599 79.425003 122.869
21.439699 79.425003 122.8699
21.5597 79.425003 122.86826
21.6803 79.425003 122.8602
21.759501 79.425003 122.8675
21.838699 79.425003 122.8747
21.9596 79.425003 122.8636
22.0793 79.425003 122.865
22.1591 79.425003 122.866
22.238899 79.425003 122.867
22.358952 79.425003 122.86525
22.477699 79.425003 122.8762
22.556101 79.425003 122.8897
22.6353 79.425003 122.897
22.755951 79.425003 122.889
22.875999 79.425003 122.8873
22.956499 79.425003 122.882
23.0369 79.425003 122.8766
23.156 79.425003 122.88435
23.2764 79.425003 122.8795
23.356899 79.425003 122.8742
23.436701 79.425003 122.8751
23.5564 79.425003 122.8766
23.6768 79.425003 122.8717
23.756599 79.425003 122.8727
23.836399 79.425003 122.8737
23.9562 79.425003 122.87511
24.075199 79.425003 122.8829
24.154301 79.425003 122.8902
24.2349 79.425003 122.8848
24.35635 79.425003 122.87054
24.4765 79.425003 122.8688
24.556299 79.425003 122.8698
24.636101 79.425003 122.8708
24.755199 79.425003 122.87855
24.8757 79.425003 122.8737
24.958401 79.425003 122.8494
25.0383 79.425003 122.8504
25.154751 79.425003 122.88025
25.274099 79.425003 122.8849
25.354 79.425003 122.8858
25.4375 79.425003 122.8553
25.55805 79.425003 122.8504
25.677099 79.425003 122.8582
25.7577 79.425003 122.8529
25.8421 79.425003 122.816
25.922701 79.425003 122.8106
26.042549 79.425003 122.8121
26.1616 79.425003 122.8199
26.2377 79.425003 122.8524
26.320601 79.425003 122.8281
26.440449 79.425003 122.82961
26.560301 79.425003 122.8311
26.6402 79.425003 122.8321
26.7584 79.425003 122.84615
26.8759 79.425003 122.8666
26.9566 79.425003 122.8612
27.036501 79.425003 122.8622
27.15625 79.425003 122.86369
27.2801 79.425003 122.8336
27.360001 79.425003 122.8346
27.439899 79.425003 122.8355
27.5142 79.425003 122.8807
19.043699 79.525002 122.8727
19.124599 79.525002 122.8611
19.243401 79.525002 122.87195
19.361601 79.525002 122.8892
19.441299 79.525002 122.8901
19.5228 79.525002 122.8722
19.644749 79.525002 122.84835
19.7656 79.525002 122.8372
19.8442 79.525002 122.8507
19.923401 79.525002 122.858
20.0436 79.525002 122.85315
20.1633 79.525002 122.8546
20.242399 79.525002 122.8618
20.322201 79.525002 122.8628
20.4422 79.525002 122.8611
20.560301 79.525002 122.8783
20.640699 79.525002 122.8729
20.720501 79.525002 122.8739
20.840401 79.525002 122.8722
20.961 79.525002 122.8642
21.0408 79.525002 122.8651
21.121201 79.525002 122.8598
21.241199 79.525002 122.85805
21.3606 79.525002 122.8627
21.441 79.525002 122.8573
21.560051 79.525002 122.8651
21.679701 79.525002 122.8665
21.760099 79.525002 122.8612
21.8393 79.525002 122.8684
21.9583 79.525002 122.87621
22.078699 79.525002 122.8713
22.158501 79.525002 122.8723
22.2383 79.525002 122.8733
22.356949 79.525002 122.88416
22.476299 79.525002 122.8888
22.556801 79.525002 122.8834
22.6373 79.525002 122.8781
22.758301 79.525002 122.8669
22.8787 79.525002 122.8621
22.9578 79.525002 122.8693
23.0369 79.525002 122.8766
23.157299 79.525002 122.87175
23.2777 79.525002 122.8669
23.3582 79.525002 122.8615
23.4387 79.525002 122.8562
23.557449 79.525002 122.86715
23.6775 79.525002 122.8654
23.757299 79.525002 122.8664
23.837799 79.525002 122.8611
23.957951 79.525002 122.85934
24.076599 79.525002 122.8703
24.155001 79.525002 122.8839
24.2349 79.525002 122.8848
24.35635 79.525002 122.87054
24.4793 79.525002 122.8436
24.5599 79.525002 122.8382
24.6397 79.525002 122.8392
24.759501 79.525002 122.8407
24.874901 79.525002 122.88
24.9555 79.525002 122.8747
25.039 79.525002 122.8441
25.156898 79.525002 122.86135
25.2749 79.525002 122.8786
25.354 79.525002 122.8858
25.4338 79.525002 122.8868
25.557701 79.525002 122.85355
25.677799 79.525002 122.8519
25.7577 79.525002 122.8529
25.8421 79.525002 122.816
25.9235 79.525002 122.8043
26.04295 79.525002 122.80894
26.1616 79.525002 122.8199
26.2369 79.525002 122.8587
26.3571 79.525002 122.85706
26.477301 79.525002 122.8554
26.5564 79.525002 122.8626
26.636299 79.525002 122.8636
26.756851 79.525002 122.8588
26.8759 79.525002 122.8666
26.955799 79.525002 122.8675
27.0357 79.525002 122.8685
27.157501 79.525002 122.8542
27.2801 79.525002 122.8336
27.3568 79.525002 122.8598
27.4359 79.525002 122.8671
27.5142 79.525002 122.8807
19.243649 79.625 122.8688
19.363899 79.625 122.8639
19.443001 79.625 122.8712
19.524 79.625 122.8595
19.6439 79.625 122.8578
19.763201 79.625 122.8624
19.843 79.625 122.8634
19.9228 79.625 122.8643
20.0427 79.625 122.8626
20.1633 79.625 122.8546
20.243 79.625 122.8555
20.322201 79.625 122.8628
20.441299 79.625 122.87055
20.561501 79.625 122.8657
20.640699 79.625 122.8729
20.7211 79.625 122.8676
20.8426 79.625 122.8501
20.961599 79.625 122.8579
21.041401 79.625 122.8588
21.16045 79.625 122.8666
21.278299 79.625 122.8869
21.358101 79.625 122.8879
21.437799 79.625 122.8889
21.55875 79.625 122.8777
21.681 79.625 122.8539
21.760799 79.625 122.8549
21.838699 79.625 122.8747
21.95895 79.625 122.8699
22.0793 79.625 122.865
22.157801 79.625 122.8786
22.237 79.625 122.8859
22.35795 79.625 122.87469
22.479 79.625 122.8635
22.559401 79.625 122.8582
22.638599 79.625 122.8655
22.757599 79.625 122.8732
22.8773 79.625 122.8747
22.9571 79.625 122.8756
23.036301 79.625 122.8829
23.156349 79.625 122.8812
23.2764 79.625 122.8795
23.356199 79.625 122.8805
23.435301 79.625 122.8878
23.556049 79.625 122.87975
23.6761 79.625 122.878
23.756599 79.625 122.8727
23.836399 79.625 122.8737
23.9163 79.625 122.8746
24.04055 79.625 122.83505
24.16 79.625 122.8397
24.237 79.625 122.8659
24.35635 79.625 122.87054
24.4765 79.625 122.8688
24.556999 79.625 122.8635
24.636101 79.625 122.8708
24.75555 79.625 122.87535
24.874201 79.625 122.8863
24.954 79.625 122.8873
25.034599 79.625 122.882
25.154701 79.625 122.88025
25.2771 79.625 122.8596
25.3577 79.625 122.8543
25.4368 79.625 122.8616
25.5569 79.625 122.8599
25.677099 79.625 122.8582
25.757 79.625 122.8592
25.838301 79.625 122.8475
25.960051 79.625 122.83321
26.0779 79.625 122.8505
26.1616 79.625 122.8199
26.2423 79.625 122.8145
26.356701 79.625 122.8602
26.4757 79.625 122.868
26.5564 79.625 122.8626
26.636299 79.625 122.8636
26.75605 79.625 122.8651
26.8759 79.625 122.8666
26.9566 79.625 122.8612
27.036501 79.625 122.8622
27.15745 79.625 122.8542
27.280899 79.625 122.8273
27.3608 79.625 122.8282
27.440701 79.625 122.8292
27.55615 79.625 122.86545
18.964001 79.775002 122.8718
19.043699 79.775002 122.8727
19.12455 79.737503 122.8611
19.245075 79.737495 122.85305
19.364151 79.737503 122.86075
19.44335 79.737503 122.86805
19.522549 79.737503 122.87531
19.642725 79.737503 122.87045
19.7624 79.737503 122.87185
19.84185 79.737503 122.87601
19.921051 79.737503 122.88325
20.0408 79.737503 122.88313
20.160601 79.737503 122.88295
20.24065 79.737503 122.8808
20.321899 79.737503 122.86595
20.441601 79.737503 122.8674
20.5597 79.737503 122.8846
20.6395 79.737503 122.8856
20.7208 79.737503 122.87075
20.841675 79.737495 122.85957
20.960701 79.737503 122.86735
21.040501 79.737503 122.86825
21.146967 79.724998 122.86853
21.253134 79.75 122.87191
21.359001 79.737503 122.87845
21.438148 79.737503 122.88575
21.55765 79.737503 122.88873
21.677799 79.737503 122.88545
21.75795 79.737503 122.88326
21.8377 79.737503 122.88425
21.958651 79.737503 122.87305
22.078701 79.737503 122.87131
22.15785 79.737503 122.8786
22.237301 79.737503 122.88275
22.357626 79.737495 122.87785
22.478649 79.737503 122.8667
22.55875 79.737503 122.8645
22.638599 79.737503 122.8655
22.757126 79.737503 122.87795
22.87635 79.737503 122.88416
22.956799 79.737503 122.8788
23.036251 79.737503 122.8829
23.154778 79.737503 122.89542
23.275 79.737503 122.8921
23.354799 79.737503 122.8931
23.435301 79.775002 122.8878
23.554649 79.775002 122.89235
23.6754 79.737503 122.88435
23.755899 79.737503 122.879
23.8358 79.737503 122.88
23.9555 79.737495 122.88145
24.074848 79.737503 122.88605
24.155001 79.737503 122.8839
24.2356 79.737503 122.8785
24.35565 79.737503 122.87685
24.475399 79.737503 122.87825
24.555599 79.737503 122.8761
24.63575 79.737503 122.87395
24.755024 79.737503 122.88013
24.87455 79.737503 122.88315
24.955851 79.737503 122.8715
25.036449 79.737503 122.8662
25.155624 79.737503 122.87238
25.276699 79.737503 122.8628
25.358051 79.737503 122.85115
25.438299 79.737503 122.849
25.55785 79.737495 122.85197
25.675949 79.737503 122.86765
25.755451 79.737503 122.8718
25.8353 79.737503 122.87275
25.954727 79.737503 122.8774
26.076801 79.737503 122.85995
26.1555 79.737503 122.87035
26.2369 79.737503 122.8587
26.356148 79.737503 122.86492
26.47575 79.737503 122.868
26.556749 79.737503 122.8595
26.64015 79.737503 122.83205
26.758823 79.737503 122.84302
26.876301 79.737503 122.86345
26.957001 79.737503 122.85805
27.03685 79.737503 122.85905
27.1553 79.737503 122.87157
27.275299 79.737503 122.8715
27.355202 79.737503 122.87245
27.4347 79.737503 122.8766
27.55475 79.737503 122.87647
27.6724 79.775002 122.8953
19.0432 79.875 122.879
19.124001 79.875 122.8674
19.243401 79.875 122.87195
19.361601 79.875 122.8892
19.4419 79.875 122.8838
19.5222 79.875 122.8785
19.643 79.875 122.86729
19.762699 79.875 122.8687
19.843 79.875 122.8634
19.923901 79.875 122.8517
20.0424 79.875 122.8658
20.1609 79.875 122.8798
20.2418 79.875 122.8682
20.322201 79.875 122.8628
20.4002 79.875 122.8827
20.638901 79.875 122.8919
20.7199 79.875 122.8802
20.8407 79.875 122.86905
20.961599 79.875 122.8579
21.040199 79.875 122.8714
21.1595 79.875 122.87605
21.279499 79.875 122.8743
21.3599 79.875 122.869
21.4391 79.875 122.8763
21.5578 79.875 122.88715
21.6784 79.875 122.8791
21.7589 79.875 122.8738
21.837999 79.875 122.8811
21.958 79.875 122.87935
22.0793 79.875 122.865
22.1591 79.875 122.866
22.238899 79.875 122.867
22.358299 79.875 122.87155
22.477699 79.875 122.8762
22.5588 79.875 122.8645
22.6392 79.875 122.8592
22.75695 79.875 122.8795
22.875999 79.875 122.8873
22.956499 79.875 122.882
23.036301 79.875 122.8829
23.1553 79.875 122.8907
23.275 79.875 122.8921
23.354099 79.875 122.8994
23.5949 79.875 122.8897
23.674 79.875 122.897
23.754499 79.875 122.8916
23.8351 79.875 122.8863
23.955849 79.875 122.8783
24.075899 79.875 122.8766
24.156401 79.875 122.8712
24.237 79.875 122.8659
24.355999 79.875 122.8737
24.4758 79.875 122.8751
24.555599 79.875 122.8761
24.635401 79.875 122.8771
24.754051 79.875 122.888
24.874201 79.875 122.8863
24.9548 79.875 122.881
25.0383 79.875 122.8504
25.157299 79.875 122.8582
25.2749 79.875 122.8786
25.3547 79.875 122.8795
25.4375 79.875 122.8553
25.55805 79.875 122.8504
25.677099 79.875 122.8582
25.7577 79.875 122.8529
25.837601 79.875 122.8538
25.95735 79.875 122.8553
26.0779 79.875 122.8505
26.157801 79.875 122.8514
26.2369 79.875 122.8587
26.357449 79.875 122.8539
26.4757 79.875 122.868
26.555599 79.875 122.869
26.636999 79.875 122.8573
26.75845 79.875 122.84615
26.877501 79.875 122.8539
26.9566 79.875 122.8612
27.0357 79.875 122.8685
27.1555 79.875 122.87
27.275299 79.875 122.8715
27.3552 79.875 122.8725
27.435101 79.875 122.8734
27.55455 79.875 122.87805
27.673201 79.875 122.889
19.042601 79.949997 122.8853
19.1229 79.949997 122.88
19.24395 79.949997 122.86565
19.363899 79.949997 122.8639
19.443001 79.949997 122.8712
19.5228 79.949997 122.8722
19.644751 79.949997 122.84835
19.763201 79.949997 122.8624
19.843 79.949997 122.8634
19.922199 79.949997 122.8706
20.04155 79.949997 122.87524
20.1621 79.949997 122.8672
20.243 79.949997 122.8555
20.3234 79.949997 122.8502
20.442801 79.949997 122.85475
20.561501 79.949997 122.8657
20.6401 79.949997 122.8793
20.759449 79.949997 122.88385
20.878799 79.949997 122.8885
20.9592 79.949997 122.8831
21.041401 79.949997 122.8588
21.1224 79.949997 122.8472
21.2421 79.949997 122.8486
21.361799 79.949997 122.85
21.4403 79.949997 122.8636
21.558449 79.949997 122.88084
21.677799 79.949997 122.8854
21.7589 79.949997 122.8738
21.838699 79.949997 122.8747
21.956749 79.949997 122.89195
22.0774 79.949997 122.8839
22.1598 79.949997 122.8597
22.2402 79.949997 122.8543
22.357601 79.949997 122.87785
22.476299 79.949997 122.8888
22.557501 79.949997 122.8771
22.6373 79.949997 122.8781
22.7563 79.949997 122.88585
22.876699 79.949997 122.881
22.9571 79.949997 122.8756
23.0369 79.949997 122.8766
23.15695 79.949997 122.8749
23.2784 79.949997 122.8606
23.3582 79.949997 122.8615
23.4387 79.949997 122.8562
23.558449 79.949997 122.85765
23.6782 79.949997 122.8591
23.757299 79.949997 122.8664
23.836399 79.949997 122.8737
23.9555 79.949997 122.88145
24.076599 79.949997 122.8703
24.1572 79.949997 122.8649
24.2363 79.949997 122.8722
24.355999 79.949997 122.8737
24.475 79.949997 122.8814
24.554899 79.949997 122.8824
24.634701 79.949997 122.8834
24.754799 79.949997 122.8817
24.874901 79.949997 122.88
24.954 79.949997 122.8873
25.034599 79.949997 122.882
25.158749 79.949997 122.84555
25.2749 79.949997 122.8786
25.3577 79.949997 122.8543
25.4375 79.949997 122.8553
25.557701 79.949997 122.85355
25.677799 79.949997 122.8519
25.758499 79.949997 122.8465
25.838301 79.949997 122.8475
25.922001 79.949997 122.8169
26.04335 79.949997 122.8058
26.1586 79.949997 122.8451
26.2384 79.949997 122.8461
26.322201 79.949997 122.8155
26.44005 79.949997 122.83275
26.557199 79.949997 122.8563
26.6378 79.949997 122.851
26.755299 79.949997 122.8714
26.8759 79.949997 122.8666
26.9566 79.949997 122.8612
27.037201 79.949997 122.8559
27.157051 79.949997 122.85741
27.2761 79.949997 122.8652
27.356001 79.949997 122.8661
27.4359 79.949997 122.8671
27.520599 79.949997 122.8302
27.638849 79.949997 122.8443
18.965099 80.050003 122.8592
19.046499 80.050003 122.8412
19.1257 80.050003 122.8484
19.2439 80.050003 122.86565
19.3622 80.050003 122.8829
19.441299 80.050003 122.8901
19.5222 80.050003 122.8785
19.6436 80.050003 122.861
19.763201 80.050003 122.8624
19.843 80.050003 122.8634
19.922199 80.050003 122.8706
20.041851 80.050003 122.8721
20.1609 80.050003 122.8798
20.240101 80.050003 122.8871
20.319799 80.050003 122.888
20.440701 80.050003 122.87685
20.561501 80.050003 122.8657
20.640699 80.050003 122.8729
20.720501 80.050003 122.8739
20.84075 80.050003 122.86905
20.959801 80.050003 122.8768
21.0408 80.050003 122.8651
21.1231 80.050003 122.8409
21.242401 80.050003 122.84544
21.361799 80.050003 122.85
21.441601 80.050003 122.851
21.559399 80.050003 122.8714
21.6784 80.050003 122.8791
21.759501 80.050003 122.8675
21.8412 80.050003 122.8495
21.959301 80.050003 122.86674
22.0793 80.050003 122.865
22.1598 80.050003 122.8597
22.2402 80.050003 122.8543
22.359249 80.050003 122.8621
22.476999 80.050003 122.8825
22.557501 80.050003 122.8771
22.637899 80.050003 122.8718
22.757599 80.050003 122.8732
22.8787 80.050003 122.8621
22.9625 80.050003 122.8251
23.042299 80.050003 122.8261
23.1604 80.050003 122.84335
23.2791 80.050003 122.8543
23.3582 80.050003 122.8615
23.437401 80.050003 122.8688
23.5179 80.050003 122.8635
23.64175 80.050003 122.82705
23.757999 80.050003 122.8601
23.837099 80.050003 122.8674
23.9177 80.050003 122.862
24.04055 80.050003 122.83505
24.16 80.050003 122.8397
24.2363 80.050003 122.8722
24.4765 80.050003 122.8688
24.556299 80.050003 122.8698
24.639 80.050003 122.8455
24.759151 80.050003 122.84385
24.879999 80.050003 122.8358
24.958401 80.050003 122.8494
25.034599 80.050003 122.882
25.1562 80.050003 122.8676
25.278601 80.050003 122.847
25.3584 80.050003 122.848
25.4375 80.050003 122.8553
25.5588 80.050003 122.8441
25.682301 80.050003 122.814
25.762199 80.050003 122.815
25.8391 80.050003 122.8412
25.9182 80.050003 122.8485
26.0422 80.050003 122.81525
26.162399 80.050003 122.8136
26.2423 80.050003 122.8145
26.322201 80.050003 122.8155
26.4412 80.050003 122.8233
26.558701 80.050003 122.8437
26.6378 80.050003 122.851
26.7208 80.050003 122.8267
26.838699 80.050003 122.84399
26.9566 80.050003 122.8612
27.037201 80.050003 122.8559
27.159451 80.050003 122.8384
27.276899 80.050003 122.8588
27.356001 80.050003 122.8661
27.4359 80.050003 122.8671
27.5222 80.050003 122.8176
18.8892 80.125 122.814
18.9662 80.125 122.8465
19.045401 80.125 122.8538
19.124001 80.125 122.8674
19.2428 80.125 122.87825
19.3633 80.125 122.8702
19.4436 80.125 122.8649
19.5228 80.125 122.8722
19.6416 80.125 122.88306
19.7609 80.125 122.8876
19.841801 80.125 122.876
19.9228 80.125 122.8643
20.0424 80.125 122.86575
20.161501 80.125 122.8735
20.2418 80.125 122.8682
20.3228 80.125 122.8565
20.441898 80.125 122.86425
20.5597 80.125 122.8846
20.640699 80.125 122.8729
20.7211 80.125 122.8676
20.8398 80.125 122.8785
20.9604 80.125 122.8705
21.0408 80.125 122.8651
21.121201 80.125 122.8598
21.241501 80.125 122.8549
21.3606 80.125 122.8627
21.441 80.125 122.8573
21.5208 80.125 122.8583
21.64045 80.125 122.8597
21.759501 80.125 122.8675
21.837999 80.125 122.8811
21.957401 80.125 122.88565
22.077999 80.125 122.8776
22.157801 80.125 122.8786
22.2376 80.125 122.8796
22.358299 80.125 122.87155
22.479 80.125 122.8635
22.557501 80.125 122.8771
22.6373 80.125 122.8781
22.75865 80.125 122.86375
22.8787 80.125 122.8621
22.959101 80.125 122.8567
23.0383 80.125 122.864
23.156651 80.125 122.87805
23.277 80.125 122.8732
23.3575 80.125 122.8679
23.438 80.125 122.8625
23.556751 80.125 122.87344
23.6761 80.125 122.878
23.756599 80.125 122.8727
23.836399 80.125 122.8737
23.9555 80.125 122.88145
24.075199 80.125 122.8829
24.154301 80.125 122.8902
24.2334 80.125 122.8975
24.354599 80.125 122.8863
24.4793 80.125 122.8436
24.5599 80.125 122.8382
24.6397 80.125 122.8392
24.759501 80.125 122.8407
24.8778 80.125 122.8548
24.9548 80.125 122.881
25.034599 80.125 122.882
25.1591 80.125 122.8424
25.279301 80.125 122.8407
25.3584 80.125 122.848
25.4375 80.125 122.8553
25.518101 80.125 122.8499
25.603201 80.125 122.8067
25.922701 80.125 122.8106
26.0418 80.125 122.81841
26.162399 80.125 122.8136
26.241501 80.125 122.8208
26.357849 80.125 122.85075
26.477301 80.125 122.8554
26.557199 80.125 122.8563
26.636999 80.125 122.8573
26.756851 80.125 122.8588
26.877501 80.125 122.8539
26.957399 80.125 122.8549
27.036501 80.125 122.8622
27.15625 80.125 122.86369
27.2761 80.125 122.8652
27.3568 80.125 122.8598
27.4375 80.125 122.8545
19.046499 80.199997 122.8412
19.125099 80.199997 122.8548
19.24365 80.199997 122.8688
19.3622 80.199997 122.8829
19.442499 80.199997 122.8775
19.523399 80.199997 122.8658
19.6427 80.199997 122.87045
19.7609 80.199997 122.8876
19.841299 80.199997 122.8823
19.921 80.199997 122.8832
20.0401 80.199997 122.89101
20.1609 80.199997 122.8798
20.241199 80.199997 122.8745
20.3204 80.199997 122.8817
20.441299 80.199997 122.87055
20.5627 80.199997 122.8531
20.641899 80.199997 122.8603
20.75975 80.199997 122.8807
20.8794 80.199997 122.8821
20.9604 80.199997 122.8705
21.040199 80.199997 122.8714
21.1206 80.199997 122.8661
21.2409 80.199997 122.86121
21.359301 80.199997 122.8753
21.439699 80.199997 122.8699
21.55875 80.199997 122.8777
21.6772 80.199997 122.8918
21.757601 80.199997 122.8864
21.837999 80.199997 122.8811
21.95895 80.199997 122.8699
22.080601 80.199997 122.8524
22.1598 80.199997 122.8597
22.2383 80.199997 122.8733
22.356949 80.199997 122.88416
22.4757 80.199997 122.8951
22.556801 80.199997 122.8834
22.637899 80.199997 122.8718
22.758949 80.199997 122.8606
22.8787 80.199997 122.8621
22.9571 80.199997 122.8756
23.036301 80.199997 122.8829
23.155651 80.199997 122.88755
23.2757 80.199997 122.8858
23.356899 80.199997 122.8742
23.437401 80.199997 122.8688
23.5179 80.199997 122.8635
23.63965 80.199997 122.846
23.757299 80.199997 122.8664
23.836399 80.199997 122.8737
23.955151 80.199997 122.8846
24.074499 80.199997 122.8892
24.155001 80.199997 122.8839
24.2349 80.199997 122.8848
24.35495 80.199997 122.88315
24.475 80.199997 122.8814
24.554899 80.199997 122.8824
24.634701 80.199997 122.8834
24.75555 80.199997 122.8754
24.874901 80.199997 122.88
24.957701 80.199997 122.8557
25.0383 80.199997 122.8504
25.1551 80.199997 122.87711
25.2749 80.199997 122.8786
25.3554 80.199997 122.8732
25.438299 80.199997 122.849
25.558449 80.199997 122.84724
25.677799 80.199997 122.8519
25.758499 80.199997 122.8465
25.8421 80.199997 122.816
25.922001 80.199997 122.8169
26.041401 80.199997 122.82155
26.163099 80.199997 122.8072
26.2423 80.199997 122.8145
26.357849 80.199997 122.85075
26.477301 80.199997 122.8554
26.561001 80.199997 122.8248
26.641701 80.199997 122.8194
26.75725 80.199997 122.85565
26.8759 80.199997 122.8666
26.955 80.199997 122.8739
27.0357 80.199997 122.8685
27.157051 80.199997 122.85741
27.276899 80.199997 122.8588
27.3568 80.199997 122.8598
19.0459 80.300003 122.8475
19.125099 80.300003 122.8548
19.246325 80.337502 122.83885
19.365299 80.337502 122.84815
19.444199 80.337502 122.8586
19.523951 80.337502 122.85955
19.644051 80.337502 122.85625
19.763201 80.337502 122.8624
19.8433 80.337502 122.86025
19.923651 80.337502 122.85485
20.042549 80.337502 122.8642
20.1621 80.337502 122.8672
20.2421 80.337502 122.86501
20.321899 80.337502 122.86595
20.441299 80.337502 122.87054
20.562099 80.337502 122.85941
20.6413 80.337502 122.8666
20.760052 80.337502 122.87755
20.879398 80.337502 122.88215
20.9601 80.337502 122.87365
21.0408 80.337502 122.8651
21.120899 80.337502 122.86295
21.23995 80.337502 122.8707
21.35935 80.337502 122.87531
21.44005 80.337502 122.8668
21.546732 80.325005 122.86493
21.653967 80.349998 122.85777
21.75985 80.337502 122.86435
21.838699 80.337502 122.8747
21.943533 80.325005 122.89072
22.076099 80.337502 122.8966
22.156549 80.337502 122.8912
22.236649 80.337502 122.88905
22.356976 80.337502 122.88417
22.477348 80.337502 122.87935
22.5571 80.337502 122.88025
22.637951 80.337502 122.8718
22.758751 80.337502 122.86218
22.877701 80.337502 122.87155
22.958149 80.337502 122.86615
23.037949 80.337502 122.86715
23.156651 80.337502 122.87805
23.277351 80.337502 122.87005
23.357201 80.337502 122.871
23.436701 80.337502 122.8751
23.556225 80.337502 122.87818
23.6761 80.337502 122.878
23.756599 80.337502 122.8727
23.83675 80.337502 122.87055
23.956026 80.337502 122.87671
24.076248 80.337502 122.87345
24.156052 80.337502 122.8744
24.2363 80.337502 122.8722
24.356001 80.337502 122.8737
24.476151 80.337502 122.87195
24.556299 80.337502 122.8698
24.635401 80.337502 122.8771
24.755199 80.337502 122.87855
24.874901 80.337502 122.88
24.9573 80.337502 122.8589
25.039 80.337502 122.8441
25.1586 80.337502 122.8471
25.278549 80.337502 122.847
25.358799 80.337502 122.84485
25.439049 80.337502 122.84265
25.55825 80.337502 122.84882
25.677849 80.337502 122.8519
25.75775 80.337502 122.85284
25.838301 80.337502 122.8475
25.958324 80.337502 122.84743
26.0821 80.337502 122.81575
26.1635 80.337502 122.80405
26.243401 80.337502 122.80505
26.347 80.325005 122.83057
26.453268 80.349998 122.83401
26.561401 80.337502 122.82165
26.6425 80.337502 122.8131
26.759399 80.337502 122.83827
26.876699 80.337502 122.8603
26.9566 80.337502 122.8612
27.036501 80.337502 122.8622
27.156475 80.337502 122.8621
19.2875 80.474998 122.8251
19.366699 80.474998 122.8324
19.4459 80.474998 122.8397
19.5257 80.474998 122.8406
19.644751 80.474998 122.84835
19.7644 80.474998 122.8498
19.8442 80.474998 122.8507
19.9251 80.474998 122.8391
20.044201 80.474998 122.8468
20.161501 80.474998 122.8735
20.241199 80.474998 122.8745
20.322201 80.474998 122.8628
20.442501 80.474998 122.85795
20.561501 80.474998 122.8657
20.6413 80.474998 122.8666
20.7223 80.474998 122.855
20.8423 80.474998 122.85326
20.961599 80.474998 122.8579
21.041401 80.474998 122.8588
21.121799 80.474998 122.8535
21.241501 80.474998 122.8549
21.3612 80.474998 122.8564
21.4403 80.474998 122.8636
21.559401 80.474998 122.8714
21.6791 80.474998 122.8728
21.759501 80.474998 122.8675
21.8393 80.474998 122.8684
21.958 80.474998 122.87935
22.0774 80.474998 122.8839
22.158501 80.474998 122.8723
22.239599 80.474998 122.8606
22.35865 80.474998 122.8684
22.476299 80.474998 122.8888
22.556101 80.474998 122.8897
22.6373 80.474998 122.8781
22.75795 80.474998 122.87006
22.875999 80.474998 122.8873
22.956499 80.474998 122.882
23.0369 80.474998 122.8766
23.157299 80.474998 122.87175
23.277 80.474998 122.8732
23.3575 80.474998 122.8679
23.437401 80.474998 122.8688
23.556049 80.474998 122.87975
23.6754 80.474998 122.8844
23.755899 80.474998 122.879
23.8358 80.474998 122.88
23.9555 80.474998 122.88145
24.076599 80.474998 122.8703
24.156401 80.474998 122.8712
24.237 80.474998 122.8659
24.356701 80.474998 122.8674
24.4765 80.474998 122.8688
24.556299 80.474998 122.8698
24.635401 80.474998 122.8771
24.754799 80.474998 122.8817
24.8778 80.474998 122.8548
24.958401 80.474998 122.8494
25.039 80.474998 122.8441
25.158749 80.474998 122.84555
25.278601 80.474998 122.847
25.3584 80.474998 122.848
25.438299 80.474998 122.849
25.55805 80.474998 122.8504
25.677799 80.474998 122.8519
25.7577 80.474998 122.8529
25.8368 80.474998 122.8602
25.958099 80.474998 122.849
26.0833 80.474998 122.8063
26.1639 80.474998 122.8009
26.243 80.474998 122.8082
26.322901 80.474998 122.8092
26.439301 80.474998 122.8391
26.557199 80.474998 122.8563
26.6378 80.474998 122.851
26.75725 80.474998 122.85565
26.8759 80.474998 122.8666
26.955799 80.474998 122.8675
19.2892 80.550003 122.8062
19.366699 80.550003 122.8324
19.4459 80.550003 122.8397
19.525101 80.550003 122.8469
19.644199 80.550003 122.85465
19.763201 80.550003 122.8624
19.843 80.550003 122.8634
19.9228 80.550003 122.8643
20.042999 80.550003 122.85945
20.1621 80.550003 122.8672
20.242399 80.550003 122.8618
20.3228 80.550003 122.8565
20.442801 80.550003 122.85475
20.562099 80.550003 122.8594
20.6425 80.550003 122.854
20.7229 80.550003 122.8487
20.84165 80.550003 122.85955
20.961 80.550003 122.8642
21.0408 80.550003 122.8651
21.120001 80.550003 122.8724
21.240601 80.550003 122.8644
21.359301 80.550003 122.8753
21.4391 80.550003 122.8763
21.559101 80.550003 122.87455
21.6791 80.550003 122.8728
21.760099 80.550003 122.8612
21.840599 80.550003 122.8558
21.919701 80.550003 122.8631
22.040751 80.550003 122.8519
22.1604 80.550003 122.8534
22.239599 80.550003 122.8606
22.358601 80.550003 122.86839
22.4783 80.550003 122.8698
22.556801 80.550003 122.8834
22.6359 80.550003 122.8907
22.757301 80.550003 122.8764
22.878 80.550003 122.8684
22.9578 80.550003 122.8693
23.0383 80.550003 122.864
23.159351 80.550003 122.8528
23.2791 80.550003 122.8543
23.3582 80.550003 122.8615
23.438 80.550003 122.8625
23.5564 80.550003 122.8766
23.6754 80.550003 122.8844
23.755899 80.550003 122.879
23.837099 80.550003 122.8674
23.9569 80.550003 122.8688
24.077299 80.550003 122.864
24.156401 80.550003 122.8712
24.2356 80.550003 122.8785
24.35635 80.550003 122.87054
24.4758 80.550003 122.8751
24.555599 80.550003 122.8761
24.636101 80.550003 122.8708
24.759151 80.550003 122.84385
24.878599 80.550003 122.8484
24.958401 80.550003 122.8494
25.0383 80.550003 122.8504
25.158051 80.550003 122.85185
25.2778 80.550003 122.8533
25.3584 80.550003 122.848
25.438299 80.550003 122.849
25.558399 80.550003 122.84724
25.6793 80.550003 122.8393
25.758499 80.550003 122.8465
25.837601 80.550003 122.8538
25.9566 80.550003 122.8616
26.0779 80.550003 122.8505
26.1593 80.550003 122.8388
26.243 80.550003 122.8082
26.361301 80.550003 122.8223
26.4781 80.550003 122.849
26.5564 80.550003 122.8626
26.636299 80.550003 122.8636
26.75605 80.550003 122.8651
26.8759 80.550003 122.8666
27.1187 80.550003 122.8443
19.4487 80.625 122.8081
19.5268 80.625 122.828
19.645901 80.625 122.8357
19.763201 80.625 122.8624
19.843 80.625 122.8634
19.923901 80.625 122.8517
20.043301 80.625 122.8563
20.162701 80.625 122.8609
20.241199 80.625 122.8745
20.3216 80.625 122.8691
20.441 80.625 122.8737
20.6401 80.625 122.8793
20.7211 80.625 122.8676
20.841351 80.625 122.86275
20.961599 80.625 122.8579
21.040199 80.625 122.8714
21.159201 80.625 122.8792
21.2789 80.625 122.8806
21.3587 80.625 122.8816
21.4391 80.625 122.8763
21.559101 80.625 122.87455
21.6803 80.625 122.8602
21.7614 80.625 122.8485
21.841801 80.625 122.8432
21.921 80.625 122.8505
22.0404 80.625 122.85506
22.157801 80.625 122.8786
22.237 80.625 122.8859
22.3573 80.625 122.881
22.476999 80.625 122.8825
22.556101 80.625 122.8897
22.6366 80.625 122.8844
22.757 80.625 122.87955
22.876699 80.625 122.881
22.956499 80.625 122.882
23.0369 80.625 122.8766
23.157299 80.625 122.87175
23.2777 80.625 122.8669
23.3575 80.625 122.8679
23.436001 80.625 122.8814
23.5557 80.625 122.8829
23.6775 80.625 122.8654
23.836399 80.625 122.8737
23.9555 80.625 122.8814
24.075199 80.625 122.8829
24.156401 80.625 122.8712
24.237 80.625 122.8659
24.35815 80.625 122.85475
24.4758 80.625 122.8751
24.556299 80.625 122.8698
24.639 80.625 122.8455
24.758801 80.625 122.847
24.878599 80.625 122.8484
24.957701 80.625 122.8557
25.0383 80.625 122.8504
25.156549 80.625 122.8645
25.2749 80.625 122.8786
25.3577 80.625 122.8543
25.438299 80.625 122.849
25.558399 80.625 122.84724
25.6793 80.625 122.8393
25.76 80.625 122.8339
25.8391 80.625 122.8412
25.958149 80.625 122.849
26.078699 80.625 122.8441
26.157801 80.625 122.8514
26.236099 80.625 122.865
26.3563 80.625 122.86335
26.477301 80.625 122.8554
26.557899 80.625 122.85
26.636999 80.625 122.8573
26.75725 80.625 122.85565
26.9589 80.625 122.8423
19.686399 80.724998 122.8299
19.7661 80.724998 122.8309
19.845301 80.724998 122.8381
19.9245 80.724998 122.8454
20.044201 80.724998 122.84685
20.1633 80.724998 122.8546
20.2418 80.724998 122.8682
20.3204 80.724998 122.8817
20.440701 80.724998 122.87685
20.561501 80.724998 122.8657
20.6413 80.724998 122.8666
20.7211 80.724998 122.8676
20.840099 80.724998 122.87535
20.9604 80.724998 122.8705
21.0408 80.724998 122.8651
21.15955 80.724998 122.87605
21.278299 80.724998 122.8869
21.3587 80.724998 122.8816
21.4391 80.724998 122.8763
21.5588 80.724998 122.8777
21.679701 80.724998 122.8665
21.760099 80.724998 122.8612
21.839899 80.724998 122.8621
21.959 80.724998 122.8699
22.0793 80.724998 122.865
22.1598 80.724998 122.8597
22.239599 80.724998 122.8606
22.35865 80.724998 122.8684
22.476299 80.724998 122.8888
22.556801 80.724998 122.8834
22.638599 80.724998 122.8655
22.758301 80.724998 122.8669
22.878 80.724998 122.8684
22.9585 80.724998 122.863
23.0383 80.724998 122.864
23.157 80.724998 122.8749
23.2764 80.724998 122.8795
23.356899 80.724998 122.8742
23.438 80.724998 122.8625
23.5564 80.724998 122.8766
23.6761 80.724998 122.878
23.755199 80.724998 122.8853
23.8358 80.724998 122.88
23.9562 80.724998 122.87511
24.075899 80.724998 122.8766
24.156401 80.724998 122.8712
24.2391 80.724998 122.847
24.35815 80.724998 122.85475
24.4786 80.724998 122.8499
24.5592 80.724998 122.8445
24.6397 80.724998 122.8392
24.758801 80.724998 122.847
24.878599 80.724998 122.8484
24.958401 80.724998 122.8494
25.0383 80.724998 122.8504
25.158749 80.724998 122.84555
25.280001 80.724998 122.8344
25.3591 80.724998 122.8417
25.438999 80.724998 122.8426
25.55805 80.724998 122.8504
25.6786 80.724998 122.8456
25.759199 80.724998 122.8402
25.8421 80.724998 122.816
25.960051 80.724998 122.83321
26.0772 80.724998 122.8568
26.157 80.724998 122.8578
26.2369 80.724998 122.8587
26.357498 80.724998 122.8539
26.4788 80.724998 122.8427
26.558701 80.724998 122.8437
26.6378 80.724998 122.851
26.75765 80.724998 122.85245
19.7656 80.800003 122.8372
19.8447 80.800003 122.8444
19.9251 80.800003 122.8391
20.0448 80.800003 122.8405
20.1633 80.800003 122.8546
20.242399 80.800003 122.8618
20.3228 80.800003 122.8565
20.442501 80.800003 122.85795
20.562099 80.800003 122.8594
20.641899 80.800003 122.8603
20.721701 80.800003 122.8613
20.841049 80.800003 122.8659
20.9604 80.800003 122.8705
21.041401 80.800003 122.8588
21.16045 80.800003 122.8666
21.278299 80.800003 122.8869
21.3587 80.800003 122.8816
21.439699 80.800003 122.8699
21.559401 80.800003 122.8714
21.679701 80.800003 122.8665
21.760799 80.800003 122.8549
21.8412 80.800003 122.8495
21.960251 80.800003 122.8573
22.078699 80.800003 122.8713
22.1598 80.800003 122.8597
22.2402 80.800003 122.8543
22.3596 80.800003 122.85895
22.4783 80.800003 122.8698
22.5588 80.800003 122.8645
22.637899 80.800003 122.8718
22.758301 80.800003 122.8669
22.878 80.800003 122.8684
22.9571 80.800003 122.8756
23.0376 80.800003 122.8703
23.158001 80.800003 122.86545
23.2764 80.800003 122.8795
23.355499 80.800003 122.8868
23.436001 80.800003 122.8814
23.557449 80.800003 122.8671
23.6775 80.800003 122.8654
23.756599 80.800003 122.8727
23.836399 80.800003 122.8737
23.956551 80.800003 122.87195
24.077299 80.800003 122.864
24.156401 80.800003 122.8712
24.237 80.800003 122.8659
24.3204 80.800003 122.8353
24.440151 80.800003 122.83681
24.5592 80.800003 122.8445
24.639 80.800003 122.8455
24.759501 80.800003 122.8407
24.879299 80.800003 122.8421
24.958401 80.800003 122.8494
25.0383 80.800003 122.8504
25.1196 80.800003 122.8387
25.23975 80.800003 122.83705
25.3584 80.800003 122.848
25.438299 80.800003 122.849
25.55805 80.800003 122.8504
25.677799 80.800003 122.8519
25.7577 80.800003 122.8529
25.837601 80.800003 122.8538
25.958149 80.800003 122.849
26.0779 80.800003 122.8505
26.157801 80.800003 122.8514
26.2377 80.800003 122.8524
26.357849 80.800003 122.85075
26.479601 80.800003 122.8364
26.561001 80.800003 122.8248
26.6402 80.800003 122.8321
26.7185 80.800003 122.8457
19.7684 80.9375 122.8056
19.847649 80.9375 122.8129
19.925701 80.9375 122.83275
20.044325 80.9375 122.84525
20.162949 80.9375 122.85775
20.242399 80.9375 122.8618
20.322201 80.9375 122.8628
20.4419 80.9375 122.86424
20.5618 80.9375 122.86255
20.6416 80.9375 122.86345
20.721701 80.9375 122.8613
20.842451 80.9375 122.8517
20.961899 80.9375 122.85471
21.042 80.9375 122.8525
21.121799 80.9375 122.8535
21.241175 80.9375 122.85805
21.359951 80.9375 122.86895
21.440651 80.9375 122.8605
21.546301 80.924995 122.86913
21.653099 80.950005 122.86616
21.759201 80.9375 122.87065
21.840248 80.9375 122.85895
21.9207 80.9375 122.85365
22.0404 80.9375 122.85505
22.160751 80.9375 122.85025
22.239899 80.9375 122.8575
22.358625 80.9375 122.8684
22.47835 80.9375 122.86985
22.5581 80.9375 122.8708
22.6376 80.9375 122.87495
22.757626 80.9375 122.87323
22.877651 80.9375 122.87155
22.957451 80.9375 122.87245
23.0376 80.9375 122.8703
23.158674 80.9375 122.85912
23.278049 80.9375 122.86375
23.357849 80.9375 122.8647
23.438 80.9375 122.8625
23.5578 80.9375 122.86395
23.6768 80.9375 122.8717
23.75555 80.9375 122.88215
23.8351 80.9375 122.8863
23.955849 80.9375 122.87827
24.076599 80.9375 122.8703
24.159649 80.9375 122.84285
24.2384 80.9375 122.85325
24.344366 80.950005 122.8588
24.452002 80.924995 122.84957
24.557751 80.9375 122.85715
24.637901 80.9375 122.855
24.756624 80.9375 122.8659
24.878599 80.9375 122.8484
24.9566 80.9375 122.8652
25.0368 80.9375 122.86305
25.158573 80.9375 122.84712
25.278601 80.9375 122.847
25.358749 80.9375 122.84485
25.439049 80.9375 122.84265
25.558975 80.9375 122.84253
25.6786 80.9375 122.8456
25.758499 80.9375 122.8465
25.838301 80.9375 122.8475
25.957951 80.9375 122.85057
26.0783 80.9375 122.84731
26.157799 80.9375 122.85146
26.238049 80.9375 122.84925
26.35845 80.9375 122.84602
26.479599 80.9375 122.8364
26.560301 80.900002 122.8311
19.8477 81.050003 122.8129
19.927999 81.050003 122.8075
20.0474 81.050003 122.81215
20.1674 81.050003 122.8104
20.244801 81.050003 122.8366
20.3234 81.050003 122.8502
20.441601 81.050003 122.8674
20.5627 81.050003 122.8531
20.641899 81.050003 122.8603
20.721701 81.050003 122.8613
20.841999 81.050003 122.8564
20.961599 81.050003 122.8579
21.041401 81.050003 122.8588
21.121201 81.050003 122.8598
21.241798 81.050003 122.85175
21.3624 81.050003 122.8437
21.441601 81.050003 122.851
21.5214 81.050003 122.852
21.6411 81.050003 122.85339
21.760099 81.050003 122.8612
21.839899 81.050003 122.8621
21.959949 81.050003 122.86044
22.080601 81.050003 122.8524
22.1598 81.050003 122.8597
22.238899 81.050003 122.867
22.357651 81.050003 122.87785
22.476299 81.050003 122.8888
22.556801 81.050003 122.8834
22.637899 81.050003 122.8718
22.75865 81.050003 122.86375
22.8787 81.050003 122.8621
22.9578 81.050003 122.8693
23.036301 81.050003 122.8829
23.157299 81.050003 122.87175
23.2777 81.050003 122.8669
23.3582 81.050003 122.8615
23.4387 81.050003 122.8562
23.5557 81.050003 122.8829
23.674 81.050003 122.897
23.755199 81.050003 122.8853
23.8358 81.050003 122.88
23.956551 81.050003 122.87195
24.076599 81.050003 122.8703
24.155001 81.050003 122.8839
24.2341 81.050003 122.8912
24.355301 81.050003 122.88
24.4743 81.050003 122.8878
24.634001 81.050003 122.8897
24.75555 81.050003 122.8754
24.8778 81.050003 122.8548
24.957701 81.050003 122.8557
25.0383 81.050003 122.8504
25.1558 81.050003 122.8708
25.278601 81.050003 122.847
25.3584 81.050003 122.848
25.438999 81.050003 122.8426
25.559151 81.050003 122.84095
25.6786 81.050003 122.8456
25.758499 81.050003 122.8465
25.8398 81.050003 122.8349
25.9589 81.050003 122.8427
26.0772 81.050003 122.8568
26.157 81.050003 122.8578
26.2384 81.050003 122.8461
26.3563 81.050003 122.86335
20.0483 81.150002 122.80265
20.1674 81.150002 122.8104
20.246599 81.150002 122.8177
20.3228 81.150002 122.8565
20.4419 81.150002 122.86425
20.561501 81.150002 122.8657
20.6413 81.150002 122.8666
20.7211 81.150002 122.8676
20.8426 81.150002 122.8501
20.963499 81.150002 122.8389
21.042 81.150002 122.8525
21.121201 81.150002 122.8598
21.2421 81.150002 122.8486
21.361799 81.150002 122.85
21.441 81.150002 122.8573
21.5214 81.150002 122.852
21.640751 81.150002 122.85655
21.7582 81.150002 122.8801
21.837999 81.150002 122.8811
21.959301 81.150002 122.86674
22.08 81.150002 122.8587
22.1598 81.150002 122.8597
22.2402 81.150002 122.8543
22.35895 81.150002 122.86525
22.476999 81.150002 122.8825
22.5581 81.150002 122.8708
22.637899 81.150002 122.8718
22.758301 81.150002 122.8669
22.879999 81.150002 122.8494
22.9585 81.150002 122.863
23.035601 81.150002 122.8892
23.1563 81.150002 122.8812
23.281099 81.150002 122.8353
23.361601 81.150002 122.83
23.438 81.150002 122.8625
23.556049 81.150002 122.87975
23.6768 81.150002 122.8717
23.756599 81.150002 122.8727
23.836399 81.150002 122.8737
23.956551 81.150002 122.87195
24.077299 81.150002 122.864
24.1572 81.150002 122.8649
24.2363 81.150002 122.8722
24.355999 81.150002 122.8737
24.4758 81.150002 122.8751
24.5592 81.150002 122.8445
24.635401 81.150002 122.8771
24.754051 81.150002 122.888
24.8778 81.150002 122.8548
24.959101 81.150002 122.8431
25.039 81.150002 122.8441
25.1584 81.150002 122.8487
25.278601 81.150002 122.847
25.3584 81.150002 122.848
25.438299 81.150002 122.849
25.55805 81.150002 122.8504
25.6786 81.150002 122.8456
25.758499 81.150002 122.8465
25.838301 81.150002 122.8475
25.958149 81.150002 122.849
26.0779 81.150002 122.8505
26.1586 81.150002 122.8451
26.239201 81.150002 122.8398
20.087601 81.224998 122.8094
20.1674 81.224998 122.8104
20.246599 81.224998 122.8177
20.326401 81.224998 122.8186
20.443399 81.224998 122.84845
20.5609 81.224998 122.872
20.6413 81.224998 122.8666
20.7223 81.224998 122.855
20.844101 81.224998 122.83435
20.961599 81.224998 122.8579
21.041401 81.224998 122.8588
21.160149 81.224998 122.86975
21.2808 81.224998 122.8617
21.3612 81.224998 122.8564
21.441 81.224998 122.8573
21.5208 81.224998 122.8583
21.640751 81.224998 122.85655
