# .PCD v0.7 - Point Cloud Data file format
VERSION 0.7
FIELDS x y z
SIZE 4 4 4
TYPE F F F
COUNT 1 1 1
WIDTH 1610
HEIGHT 1
VIEWPOINT 0 0 0 1 0 0 0
POINTS 1610
DATA ascii
21.645926 -0.19208884 136.83765
24.944954 -0.17837457 136.83542
25.504259 -0.2989637 136.83606
26.091669 -0.3095119 136.85841
26.687449 -0.29067478 136.85458
27.283957 -0.29047954 136.86087
27.900639 -0.3122516 136.8871
28.519638 -0.29089335 136.88371
29.108196 -0.30076596 136.87933
29.70211 -0.30362305 136.88539
30.305248 -0.30317199 136.88966
30.876804 -0.32288554 136.88638
31.47113 -0.29391748 136.90431
32.105309 -0.31265798 136.89536
32.717426 -0.29237199 136.8909
33.301155 -0.31780273 136.89362
33.881203 -0.28214949 136.85039
34.395203 -0.15559281 136.83476
34.846661 -0.021533012 136.81895
11.338182 0.061652184 136.8213
11.748175 0.092359543 136.83636
12.362645 0.2501027 136.85271
12.898582 0.30219105 136.85495
13.507478 0.29337785 136.85536
14.1046 0.31027624 136.84837
14.713557 0.30605775 136.84006
15.311502 0.31253815 136.84818
15.905074 0.32701862 136.84814
16.510181 0.32647026 136.85165
17.102133 0.2453005 136.84442
17.691269 0.31089312 136.84369
18.292788 0.31971931 136.84245
18.908266 0.27473235 136.8441
19.495737 0.33290926 136.83632
20.107849 0.29679912 136.85341
20.70435 0.30858785 136.85643
21.304825 0.30085823 136.86076
21.63658 0.2702539 136.87253
23.864365 0.43912697 136.83011
24.31979 0.31865814 136.84196
24.892321 0.30706242 136.86812
25.504639 0.30766076 136.87379
26.102203 0.29852614 136.85728
26.712183 0.29811239 136.87398
27.324562 0.31365985 136.87276
27.914579 0.28445587 136.86093
28.503897 0.30115634 136.87442
29.114628 0.31218889 136.88535
29.716391 0.28566256 136.89845
30.277935 0.31284267 136.89737
30.892353 0.29307365 136.8931
31.501839 0.30327478 136.89052
32.098927 0.27886033 136.90462
32.700104 0.29383108 136.90697
33.289181 0.29173827 136.91771
33.916328 0.30419523 136.87175
34.508587 0.28463712 136.85693
35.076557 0.4026705 136.83157
35.499542 0.46874571 136.8183
12.524141 0.62818909 136.8029
12.959882 0.81375468 136.83188
13.501456 0.88592196 136.85747
14.094678 0.89414865 136.86514
14.691297 0.90861523 136.87061
15.283096 0.89877355 136.86757
15.889013 0.87991917 136.83987
16.4865 0.89909446 136.85101
17.112616 0.90578747 136.86856
17.694597 0.88892347 136.84587
18.309561 0.91066885 136.83826
18.915283 0.91537249 136.8492
19.511377 0.90453118 136.84506
20.108389 0.8875677 136.85068
20.693163 0.91187555 136.84586
21.288729 0.88728541 136.8506
21.647978 0.91915131 136.84248
23.811995 0.91966349 136.84933
24.307943 0.88396031 136.87192
24.902405 0.90168917 136.87701
25.494064 0.89316911 136.8721
26.102947 0.9116025 136.86099
26.707958 0.9071579 136.86447
27.29203 0.89920545 136.86252
27.899874 0.89718133 136.88892
28.519627 0.89240003 136.9001
29.113762 0.89764857 136.88039
29.703428 0.88589585 136.87523
30.283148 0.8997339 136.9023
30.892212 0.89282525 136.89806
31.515472 0.89592302 136.91116
32.09613 0.89571458 136.90094
32.697491 0.90245849 136.89647
33.290226 0.88275343 136.91322
33.891651 0.91435915 136.89145
34.503326 0.88066936 136.90288
35.101006 0.91502386 136.87279
35.663548 0.91466308 136.85075
36.222759 1.0638906 136.82413
13.613464 1.2927941 136.81314
14.103424 1.4301403 136.83365
14.691997 1.5064411 136.87045
15.306009 1.5025026 136.86794
15.92591 1.5364475 136.862
16.497948 1.5024391 136.86134
17.107008 1.490541 136.86148
17.682896 1.504281 136.8485
18.28414 1.4864501 136.85197
18.90086 1.5080236 136.84218
19.510656 1.4868922 136.84456
20.104927 1.4741337 136.86047
20.694324 1.5065107 136.85568
21.298874 1.4889568 136.85265
21.63245 1.4654019 136.86069
23.803925 1.4724443 136.84187
24.280613 1.4865335 136.87416
24.887575 1.5067858 136.85831
25.494156 1.4916916 136.86658
26.086302 1.5092683 136.87709
26.68804 1.508601 136.86224
27.303608 1.4848278 136.8589
27.907364 1.4984612 136.88304
28.479122 1.470753 136.86362
29.070143 1.3143172 136.8661
30.379955 1.3054062 136.83745
30.930918 1.4583763 136.87154
31.494396 1.5053209 136.89114
32.10791 1.4916151 136.89447
32.711327 1.501812 136.8978
33.301479 1.4963264 136.88927
33.907707 1.5066447 136.90147
34.490208 1.5023038 136.90109
35.100536 1.4994998 136.8844
35.7094 1.4964682 136.87683
36.290428 1.5063467 136.87875
36.8354 1.6191349 136.84181
37.560589 1.7237797 136.83186
14.808467 1.9679492 136.82446
15.316719 2.0931962 136.85144
15.885907 2.0996706 136.86586
16.500174 2.1079271 136.86061
17.105835 2.0930743 136.85193
17.700443 2.0898442 136.85287
18.284285 2.1188884 136.85475
18.892487 2.0828409 136.85277
19.471138 2.1040783 136.85904
20.124369 2.1138055 136.85492
20.694128 2.1001909 136.85393
21.299234 2.0966468 136.86343
21.661573 2.110389 136.85435
23.831066 2.0906568 136.83246
24.286081 2.1003509 136.87936
24.882076 2.1031845 136.87331
25.471899 2.0929205 136.86987
26.087919 2.0974605 136.85841
26.69573 2.092207 136.86409
27.283169 2.0680366 136.86916
27.839443 1.9873712 136.853
31.012741 1.8733449 136.82629
31.527067 2.0673137 136.88521
32.106148 2.0954461 136.90366
32.700459 2.1106367 136.90321
33.313965 2.0772898 136.8996
33.891293 2.1245093 136.88956
34.504532 2.0944607 136.89931
35.0952 2.1063573 136.88661
35.69883 2.1095846 136.88983
36.321293 2.0811372 136.90448
36.908306 2.1289148 136.87097
37.470264 2.1557465 136.86807
37.950436 2.2389841 136.81694
15.430119 2.4475012 136.82788
15.95681 2.622411 136.84613
16.502974 2.6841974 136.86922
17.10537 2.7076497 136.86594
17.715391 2.6859848 136.87787
18.304333 2.7101912 136.87454
18.91128 2.6871278 136.85448
19.501236 2.6880405 136.8591
20.114584 2.7209771 136.84857
20.700823 2.7118015 136.86392
21.291128 2.7065456 136.86954
21.698929 2.7201955 136.84521
23.871029 2.7112465 136.85378
24.289537 2.6895862 136.87596
24.871914 2.6946929 136.88907
25.485666 2.6985955 136.8851
26.091328 2.7084513 136.88237
26.66485 2.6677442 136.85873
27.186272 2.4743557 136.8335
30.935934 2.8853645 136.86095
31.50836 2.708236 136.87944
32.091923 2.6893933 136.90323
32.70018 2.6981213 136.88635
33.309952 2.7056844 136.89584
33.902512 2.7051449 136.90244
34.493576 2.7013104 136.88718
35.090473 2.6882563 136.88211
35.70232 2.7061846 136.87372
36.30624 2.6960356 136.87341
36.910072 2.7211397 136.8983
37.497509 2.6986489 136.88683
38.090218 2.7060726 136.86072
38.670425 2.8390474 136.85156
39.138226 2.9248784 136.84203
16.136173 3.0509117 136.81696
16.595112 3.1281891 136.81532
17.117702 3.2643633 136.845
17.693096 3.2838182 136.87579
18.287579 3.3032525 136.87212
18.888641 3.3085227 136.87196
19.503345 3.3047998 136.84573
20.088543 3.3087165 136.85278
20.714699 3.2937112 136.86479
21.307388 3.3093112 136.87134
21.869373 3.3350224 136.85664
22.395014 3.5053005 136.84636
23.833479 3.2957137 136.84763
24.292419 3.2832763 136.88644
24.886433 3.2994652 136.86737
25.500515 3.2957408 136.87445
26.114332 3.3027399 136.87778
26.615993 3.3101125 136.8629
29.681311 3.5388901 136.82085
30.346218 3.3486378 136.86014
30.906713 3.3058517 136.88664
31.512857 3.2840359 136.89192
32.11224 3.3047037 136.91048
32.704311 3.3029668 136.90565
33.301174 3.2990203 136.8965
33.903545 3.306689 136.89488
34.505726 3.2946093 136.90765
35.106834 3.2950685 136.88582
35.704609 3.3143499 136.89378
36.31179 3.2870953 136.89201
36.891788 3.3211937 136.89615
37.508755 3.2861774 136.87407
38.099331 3.3170395 136.87212
38.678715 3.3198485 136.86362
39.270317 3.3553729 136.84523
39.877079 3.5772409 136.8028
17.204121 3.6326585 136.81821
17.705811 3.8747952 136.84386
18.314312 3.8993316 136.84802
18.907679 3.9083104 136.8813
19.495302 3.8872967 136.88058
20.080688 3.9022031 136.87689
20.692339 3.8873689 136.87088
21.302773 3.9168367 136.87169
21.913008 3.9119658 136.87001
22.492062 3.8985679 136.87019
23.068371 4.0199962 136.85481
23.704554 3.9533589 136.8374
24.282492 3.900491 136.88943
24.900463 3.8873103 136.88695
25.49762 3.8918564 136.88255
26.087151 3.9054739 136.88103
26.589525 3.9091918 136.85522
28.73731 4.1414843 136.8308
29.101831 3.9988892 136.85374
29.689005 3.9226246 136.86603
30.299126 3.8799338 136.88637
30.895336 3.9246814 136.89027
31.496107 3.9074163 136.90155
32.107437 3.8738937 136.91151
32.701176 3.9185483 136.89378
33.303284 3.896286 136.89226
33.917374 3.894479 136.89752
34.500851 3.9283206 136.8932
35.105938 3.8770523 136.89017
35.705093 3.9060774 136.87978
36.308529 3.9061511 136.86604
36.915077 3.9091661 136.86618
37.485195 3.9018118 136.88612
38.080193 3.9077127 136.88126
38.714363 3.893393 136.87196
39.30822 3.9056208 136.88069
39.850723 3.9355237 136.8519
40.392902 4.0502772 136.82484
17.983398 4.2146802 136.8026
18.380171 4.3843284 136.82835
18.909101 4.4995785 136.86395
19.483374 4.4903874 136.88245
20.090284 4.5007401 136.87613
20.69832 4.4923401 136.87286
21.299803 4.4996572 136.88905
21.9102 4.5080628 136.89053
22.50127 4.4787488 136.87514
23.081957 4.5133224 136.86566
23.69684 4.5030632 136.88249
24.315079 4.5160632 136.87685
24.919659 4.4677062 136.89413
25.516039 4.5252209 136.89017
26.100151 4.4861851 136.8947
26.600676 4.5028515 136.86522
28.74548 4.5884533 136.8257
29.097837 4.4837666 136.8864
29.704443 4.5166187 136.89299
30.284924 4.5031352 136.90126
30.896517 4.4965305 136.90013
31.499969 4.5026116 136.88165
32.094463 4.5010328 136.91252
32.695724 4.4905629 136.88144
33.285912 4.5134029 136.88722
33.903801 4.5045285 136.89253
34.509026 4.4921489 136.87865
35.09914 4.4885607 136.87244
35.702068 4.5149007 136.88063
36.32259 4.4919567 136.87582
36.895042 4.5159101 136.88757
37.497498 4.501205 136.87981
38.106842 4.5034175 136.87376
38.719883 4.4952388 136.87967
39.30209 4.4923429 136.8804
39.879658 4.5090232 136.87357
40.489979 4.5049052 136.85291
41.087395 4.6349792 136.82144
41.700447 4.7663727 136.81261
19.042229 4.9256811 136.83313
19.504562 5.0704536 136.8472
20.09268 5.1036625 136.88907
20.700523 5.1019654 136.89555
21.320763 5.1048017 136.89595
21.92309 5.0912242 136.89513
22.50474 5.0957527 136.89272
23.100279 5.1010814 136.90413
23.697063 5.0858917 136.90117
24.288572 5.1323452 136.89378
24.89967 5.0759678 136.882
25.493624 5.115519 136.89191
26.090981 5.1010566 136.88408
26.600698 5.0933428 136.88086
28.753378 5.095674 136.83324
29.09502 5.0935249 136.87115
29.704708 5.1014233 136.90112
30.309669 5.0993075 136.8867
30.897959 5.0966029 136.88916
31.52096 5.1101928 136.88144
32.107906 5.1010661 136.88396
32.691551 5.1091304 136.89461
33.292934 5.0903211 136.89246
33.868145 5.0882201 136.84669
34.450165 4.9923425 136.82091
35.149776 4.9253011 136.8587
35.71603 5.0806437 136.84933
36.294926 5.1060276 136.86346
36.889473 5.0992389 136.85796
37.503265 5.1002684 136.85829
38.125557 5.0933766 136.87926
38.692631 5.1054573 136.87958
39.283337 5.0876637 136.8735
39.890053 5.1147017 136.88522
40.482399 5.1032181 136.88156
41.076881 5.1133313 136.87154
41.70034 5.2716022 136.85207
42.120747 5.2345414 136.81317
19.660788 5.4602361 136.81384
20.152439 5.6423316 136.84784
20.71772 5.676959 136.86728
21.289759 5.724021 136.88928
21.885691 5.7068086 136.91647
22.49649 5.6741309 136.90401
23.085249 5.7146087 136.92007
23.68568 5.6832042 136.91487
24.31329 5.7201071 136.90199
24.910727 5.6779757 136.90533
25.504366 5.728271 136.8943
26.102905 5.6822886 136.90967
26.619249 5.7133636 136.86977
28.753994 5.8191342 136.84549
29.09651 5.6835361 136.87892
29.679243 5.6931939 136.88078
30.29258 5.7171621 136.88132
30.915346 5.6885676 136.88571
31.498772 5.7144918 136.87964
32.091377 5.6915679 136.87451
32.668262 5.6336789 136.85551
33.289722 5.5341883 136.83804
33.648308 5.4391952 136.80499
35.740368 5.4953828 136.81871
36.326256 5.6690369 136.85654
36.911549 5.6990638 136.87064
37.503948 5.6993117 136.87947
38.110863 5.6972718 136.86551
38.695076 5.6983643 136.86177
39.283745 5.7057605 136.86314
39.886414 5.699542 136.86417
40.511543 5.6952605 136.87964
41.11351 5.7196016 136.873
41.708561 5.7311969 136.87473
42.286652 5.7267785 136.83934
42.847248 5.7596617 136.81255
20.256086 6.0059929 136.8062
20.793499 6.1709747 136.83119
21.307859 6.3009739 136.8752
21.912128 6.3002615 136.89249
22.507437 6.2867823 136.90524
23.103285 6.3145933 136.91054
23.711025 6.2706614 136.9165
24.303474 6.3166633 136.89706
24.903732 6.2949185 136.90048
25.50424 6.2992516 136.89793
26.093548 6.3174524 136.89488
26.624481 6.3039351 136.88626
28.732672 6.2941799 136.85236
29.090519 6.3064785 136.87338
29.713017 6.3056765 136.88492
30.303148 6.3052163 136.90454
30.885572 6.2840695 136.89423
31.495615 6.3232646 136.86766
31.963921 6.1775155 136.89102
36.422108 6.3093615 136.84096
36.9095 6.3003297 136.85992
37.525852 6.3111072 136.86902
38.132458 6.3164029 136.85359
38.705883 6.3031478 136.86345
39.302509 6.2980008 136.86351
39.910366 6.3067942 136.86812
40.506077 6.2988505 136.87823
41.105106 6.3143125 136.86913
41.699902 6.2952943 136.87445
42.308945 6.30407 136.87695
42.889557 6.343441 136.84416
43.4608 6.377583 136.83035
43.957047 6.4370999 136.81256
21.466791 6.7132263 136.81955
21.918839 6.8816895 136.84608
22.486877 6.8761883 136.88519
23.079937 6.9353004 136.91992
23.68992 6.8794599 136.91814
24.294378 6.891541 136.93388
24.888844 6.9200931 136.91351
25.496059 6.8965392 136.91261
26.104727 6.9165339 136.90846
26.692532 6.8881888 136.88828
27.198042 6.956449 136.86568
27.643131 7.1379738 136.86055
28.738409 6.8047533 136.84634
29.113226 6.8947949 136.88049
29.711182 6.8790436 136.87236
30.301182 6.9262195 136.88557
30.915833 6.8880839 136.90129
31.489214 6.9194579 136.87207
31.801943 6.883316 136.8396
35.173496 7.1153021 136.87012
35.7215 6.9815416 136.8699
36.310173 6.8965473 136.86143
36.916286 6.9126477 136.87183
37.502281 6.9105191 136.87114
38.091827 6.9065356 136.86502
38.702091 6.9171815 136.85898
39.294113 6.8974423 136.86227
39.892796 6.9038334 136.87059
40.501888 6.8892522 136.86993
41.099369 6.9165602 136.8734
41.705826 6.898561 136.87634
42.293011 6.908361 136.87758
42.900589 6.8895197 136.88214
43.504856 6.9068551 136.86864
44.061996 6.984036 136.84427
44.55431 7.080512 136.83105
21.878267 7.2226419 136.81714
22.568346 7.379869 136.8391
23.111519 7.5122309 136.88521
23.699108 7.5039878 136.91502
24.298941 7.500865 136.92943
24.903734 7.499898 136.90875
25.490696 7.4963746 136.91156
26.091393 7.5170617 136.89304
26.70895 7.476862 136.9064
27.297407 7.5192547 136.903
27.87924 7.529284 136.89224
28.542589 7.5233841 136.83282
29.092415 7.520153 136.86392
29.711233 7.5016804 136.86533
30.310263 7.5055432 136.87265
30.904715 7.477921 136.87677
31.47217 7.5085034 136.8701
34.514687 7.5681725 136.87274
35.081005 7.5205688 136.881
35.699696 7.5079021 136.87608
36.278046 7.5056992 136.88179
36.876186 7.5081458 136.88931
37.493977 7.5046549 136.86894
38.101013 7.5091805 136.86287
38.695225 7.5098348 136.86829
39.296116 7.4874744 136.86952
39.901287 7.5076361 136.86259
40.517021 7.5030298 136.86624
41.105431 7.4923177 136.87268
41.687702 7.5264912 136.8745
42.298119 7.4972119 136.86681
42.890835 7.4987974 136.86215
43.500748 7.5148315 136.85965
44.080097 7.5079913 136.86043
44.693211 7.5075955 136.84937
45.195618 7.6162705 136.84164
22.762384 7.851294 136.81226
23.18256 7.9541745 136.84138
23.725048 8.0947161 136.87328
24.30258 8.0685415 136.91234
24.894388 8.1180544 136.91521
25.507151 8.0895319 136.92532
26.117338 8.1043482 136.90685
26.693779 8.0915394 136.90341
27.298126 8.0981359 136.88318
27.896362 8.1078014 136.91273
28.50634 8.0943632 136.88101
29.100765 8.1008892 136.88116
29.705351 8.096138 136.86717
30.286999 8.1080675 136.87491
30.877495 8.1054459 136.8656
31.474499 8.0943127 136.86089
35.088451 8.1224213 136.88016
35.702969 8.0876207 136.89175
36.319508 8.1163864 136.88853
36.9114 8.1046143 136.86906
37.502239 8.09624 136.86795
38.093231 8.112896 136.87776
38.70351 8.1004877 136.86142
39.307064 8.1058464 136.86156
39.900898 8.1106167 136.85651
40.489975 8.0981579 136.86635
41.097649 8.0926504 136.86008
41.710369 8.0967693 136.86247
42.303585 8.0998459 136.86691
42.907459 8.1046381 136.85719
43.499973 8.1143332 136.86665
44.084373 8.0985518 136.86989
44.706745 8.0962286 136.86269
45.261112 8.1163311 136.85391
45.741253 8.1733227 136.83405
24.353289 8.6337509 136.86285
24.915085 8.7107134 136.89664
25.500803 8.6876278 136.91927
26.103712 8.7042885 136.93015
26.7062 8.6919031 136.90388
27.295717 8.7243872 136.90723
27.884434 8.6962118 136.89227
28.491819 8.6993704 136.88437
29.111418 8.688035 136.89336
29.684885 8.7095823 136.87871
30.283941 8.6928129 136.8723
30.898167 8.7107296 136.86993
31.440056 8.7085886 136.86682
34.502853 8.6996403 136.89211
35.107262 8.7267523 136.88339
35.70723 8.6910706 136.8792
36.305237 8.6997709 136.88776
36.905949 8.6920872 136.87579
37.504177 8.7106237 136.87056
38.107887 8.7084494 136.86902
38.702679 8.6897602 136.85872
39.2929 8.7144508 136.86061
39.901398 8.689642 136.84779
40.501438 8.705905 136.85774
41.098503 8.6956577 136.86453
41.698143 8.7102346 136.85907
42.299385 8.6993551 136.86815
42.901344 8.6965628 136.87047
43.497993 8.716466 136.86821
44.103584 8.6895151 136.87468
44.709301 8.6855183 136.86626
45.31292 8.710578 136.86359
45.871563 8.7084093 136.86565
46.357716 8.7588997 136.84317
46.950562 8.9312429 136.83418
24.954702 9.2016678 136.86349
25.508772 9.2911606 136.88956
26.104601 9.2980013 136.90981
26.680147 9.2974281 136.91351
27.279697 9.3049011 136.90004
27.910122 9.2923832 136.90048
28.511889 9.2991695 136.91029
29.09296 9.3159895 136.87146
29.684462 9.2952185 136.87013
30.287031 9.2947416 136.86662
30.908817 9.2951593 136.86739
31.450697 9.3139219 136.87607
34.511421 9.3033218 136.88103
35.098083 9.3161221 136.89206
35.700153 9.2903109 136.87524
36.30217 9.3035765 136.88322
36.903843 9.3082676 136.87109
37.502647 9.2997169 136.86569
38.095097 9.2989588 136.86296
38.701157 9.3035145 136.84579
39.293999 9.2942123 136.85562
39.89661 9.3037262 136.85565
40.483627 9.3099794 136.85815
41.087769 9.3004503 136.85684
41.697521 9.3121843 136.84966
42.29306 9.2926798 136.85797
42.894699 9.3003359 136.86383
43.509743 9.313797 136.85887
44.091724 9.2952223 136.85985
44.702908 9.2936993 136.84987
45.297958 9.2999325 136.86948
45.922844 9.3231001 136.87077
46.487263 9.2858858 136.86879
47.064724 9.3559065 136.84004
47.517593 9.3875475 136.83171
25.530977 9.6812687 136.84901
26.100737 9.8764668 136.86459
26.696703 9.8968277 136.91051
27.307997 9.889493 136.92238
27.914612 9.9010754 136.92953
28.514566 9.9172506 136.89774
29.081915 9.9011431 136.90181
29.691721 9.8990746 136.87671
30.302183 9.8943157 136.86909
30.900503 9.9106665 136.86917
31.491673 9.9084282 136.87036
31.812616 10.01369 136.8447
33.936657 9.9145174 136.87749
34.50206 9.8955507 136.89009
35.106052 9.9064941 136.89102
35.708466 9.9027863 136.88635
36.304909 9.8987265 136.86787
36.896046 9.9181738 136.86389
37.486984 9.8999891 136.87085
38.09407 9.8993988 136.84612
38.701199 9.908144 136.87383
39.306885 9.8934078 136.85951
39.901299 9.9043722 136.85301
40.510136 9.8940344 136.85573
41.105164 9.9025269 136.85658
41.695938 9.9047937 136.85539
42.295773 9.8985271 136.86079
42.904442 9.8887568 136.86722
43.490929 9.9110165 136.86217
44.083958 9.8943739 136.85187
44.690128 9.9046812 136.84349
45.300091 9.9314566 136.85776
45.886417 9.8955994 136.85905
46.475681 9.8893032 136.86615
47.088039 9.9126959 136.87038
47.661491 9.8958187 136.83971
48.113853 10.009918 136.83672
48.672962 10.052058 136.84053
26.362398 10.252056 136.855
26.754717 10.450334 136.86655
27.329447 10.491683 136.90163
27.922766 10.485671 136.89711
28.487972 10.51345 136.91412
29.084974 10.508689 136.90202
29.69136 10.522711 136.89554
30.302021 10.495072 136.89696
30.907637 10.50346 136.86862
31.496269 10.496874 136.87259
32.037876 10.583182 136.88002
32.47551 10.721129 136.92036
33.922928 10.513641 136.86325
34.497032 10.500352 136.87823
35.103672 10.494284 136.88512
35.704445 10.502276 136.87991
36.301247 10.502002 136.87378
36.90625 10.506624 136.86537
37.511078 10.511995 136.86502
38.097847 10.498408 136.8728
38.700634 10.493868 136.85954
39.31041 10.514866 136.86307
39.901642 10.496335 136.85603
40.50288 10.492891 136.86269
41.098923 10.50328 136.86157
41.699364 10.489899 136.85519
42.304882 10.499466 136.85583
42.893204 10.486309 136.85965
43.494808 10.503009 136.85896
44.09201 10.484845 136.85838
44.715752 10.524725 136.85568
45.30307 10.499016 136.85547
45.888489 10.51094 136.84572
46.495228 10.472445 136.8503
47.1236 10.5055 136.85013
47.71796 10.516231 136.84109
48.261364 10.595862 136.83974
48.907928 10.611792 136.83102
49.46199 10.499475 136.82918
50.532906 10.765734 136.8044
27.463503 11.025942 136.86253
27.912165 11.09846 136.88463
28.49052 11.110896 136.89795
29.108973 11.095212 136.88902
29.705074 11.107248 136.91347
30.292231 11.114918 136.90199
30.902802 11.104877 136.8887
31.505941 11.093188 136.886
32.097954 11.10842 136.87851
32.675983 11.131875 136.86916
33.339207 11.218896 136.84975
33.89819 11.103371 136.8705
34.49865 11.105325 136.88701
35.095448 11.094196 136.87082
35.7006 11.0996 136.8756
36.312618 11.108138 136.88362
36.908863 11.112864 136.8653
37.502018 11.10356 136.87143
38.100449 11.094373 136.86708
38.697094 11.096349 136.88091
39.302822 11.101229 136.85855
39.900372 11.101417 136.85706
40.504955 11.096699 136.85457
41.104298 11.100152 136.85576
41.708366 11.096728 136.86099
42.306259 11.105453 136.85399
42.907852 11.102117 136.85965
43.505997 11.110054 136.85634
44.091606 11.07936 136.86504
44.676804 11.099399 136.85533
45.291634 11.087999 136.85713
45.872669 11.071597 136.85175
46.47546 11.068282 136.84888
47.082207 11.050678 136.85677
47.708439 11.05961 136.854
48.308151 11.138286 136.84564
48.869923 11.095863 136.84355
49.473701 11.105864 136.8399
50.083561 11.121895 136.83226
50.68364 11.214516 136.82057
51.314003 11.242366 136.81308
51.741413 11.127177 136.80493
52.458488 11.286863 136.81964
53.041981 11.222302 136.82515
54.413074 11.338959 136.83342
58.02256 11.217041 136.81403
58.506165 11.284962 136.83401
59.084934 11.192007 136.85089
27.993849 11.526672 136.84764
28.50835 11.676914 136.88324
29.082129 11.707381 136.91141
29.698845 11.704514 136.92354
30.311441 11.70449 136.90378
30.907402 11.700796 136.90102
31.49637 11.693383 136.88702
32.087704 11.706079 136.89081
32.697735 11.691072 136.87517
33.298111 11.717931 136.87247
33.89743 11.70521 136.87079
34.487404 11.693397 136.87512
35.101109 11.705886 136.87407
35.707779 11.699403 136.8719
36.312237 11.703219 136.87923
36.898552 11.709468 136.88445
37.491856 11.700393 136.8696
38.091496 11.689106 136.86354
38.687744 11.693691 136.86916
39.296459 11.70497 136.85567
39.899837 11.696418 136.85841
40.496193 11.690443 136.85789
41.094749 11.701218 136.86217
41.684124 11.700732 136.86305
42.284382 11.703016 136.85481
42.886868 11.70599 136.85744
43.495445 11.681534 136.856
44.094254 11.702754 136.85529
44.68367 11.710364 136.86722
45.316223 11.70257 136.83514
45.895168 11.675056 136.84818
46.517513 11.72911 136.84914
47.059101 11.713605 136.85754
47.681408 11.670101 136.84807
48.298641 11.687105 136.86282
48.889347 11.689901 136.84969
49.494087 11.695674 136.85622
50.08049 11.718117 136.84436
50.702423 11.70914 136.85442
51.300171 11.716872 136.87448
51.904209 11.701279 136.83531
52.488495 11.743719 136.84814
53.108784 11.815853 136.83406
53.718082 11.773078 136.83476
54.244576 11.760787 136.84418
54.947678 11.843316 136.86046
55.52346 11.871453 136.86134
56.107243 11.777694 136.86522
56.718452 11.725749 136.84164
57.325745 11.75126 136.84492
57.884209 11.705384 136.85962
58.498558 11.709979 136.87511
59.077568 11.707228 136.90154
59.484215 11.843655 136.92445
28.71023 12.104298 136.82655
29.15276 12.255692 136.86137
29.691658 12.305681 136.89983
30.3001 12.304224 136.91624
30.897186 12.301841 136.90654
31.506241 12.290883 136.89391
32.108219 12.303901 136.87672
32.694462 12.296746 136.86729
33.297424 12.30235 136.87018
33.900978 12.312207 136.88744
34.507553 12.295903 136.86551
35.094742 12.312368 136.86136
35.699493 12.297117 136.86923
36.296806 12.29799 136.87497
36.89769 12.310253 136.87219
37.498444 12.303144 136.88237
38.106251 12.279418 136.85986
38.698555 12.298401 136.87071
39.292965 12.295031 136.86046
39.900101 12.29032 136.86452
40.511932 12.319795 136.86942
41.101967 12.293673 136.85471
41.707016 12.287937 136.85956
42.282719 12.307321 136.8555
42.912094 12.301273 136.84995
43.49704 12.287985 136.85373
44.114796 12.29641 136.85172
44.678204 12.320808 136.85416
45.310055 12.33392 136.83904
45.873787 12.303513 136.83467
46.494255 12.285758 136.85109
47.085232 12.308888 136.8562
47.718822 12.299049 136.84367
48.320675 12.283216 136.87024
48.905041 12.315351 136.86394
49.50782 12.321213 136.84575
50.12991 12.310505 136.85654
50.718357 12.295342 136.84476
51.292377 12.292564 136.85071
51.889202 12.291603 136.87061
52.491028 12.306618 136.86713
53.082146 12.300634 136.87459
53.689964 12.290706 136.86435
54.297028 12.304813 136.88562
54.885437 12.300434 136.90063
55.5084 12.311653 136.87802
56.099323 12.290998 136.89044
56.698643 12.326855 136.89742
57.317829 12.30238 136.9023
57.89286 12.284432 136.90358
58.488266 12.302008 136.89288
59.091881 12.304525 136.92064
59.599308 12.3464 136.92834
29.325846 12.663396 136.823
29.801208 12.805154 136.85555
30.309425 12.899565 136.88724
30.90016 12.906019 136.88692
31.495733 12.902578 136.90508
32.097458 12.90104 136.8821
32.69175 12.907012 136.87759
33.300659 12.896311 136.86311
33.899982 12.899701 136.86806
34.49279 12.904848 136.86389
35.103195 12.898425 136.8658
35.713444 12.902451 136.86771
36.300987 12.90126 136.88109
36.900894 12.907345 136.86809
37.49551 12.892911 136.87492
38.089211 12.893728 136.86772
38.695438 12.893818 136.8774
39.297703 12.895138 136.86726
39.889538 12.899367 136.87662
40.498238 12.900135 136.8578
41.093803 12.896067 136.86499
41.695229 12.901544 136.85114
42.303059 12.889734 136.85114
42.882278 12.922405 136.85478
43.498894 12.90032 136.84798
44.102253 12.884875 136.83887
44.698414 12.924175 136.85146
45.309074 12.903721 136.8447
45.911354 12.881953 136.85184
46.503754 12.904785 136.85347
47.098541 12.856414 136.8387
47.692307 12.871252 136.85655
48.273537 12.916537 136.86234
48.899601 12.900378 136.82845
49.48 12.953522 136.8459
50.108078 12.868278 136.8371
50.721703 12.902973 136.83994
51.292229 12.902923 136.85481
51.900356 12.896266 136.87372
52.502483 12.888006 136.86279
53.107777 12.910149 136.87547
53.714413 12.886816 136.87817
54.31041 12.90827 136.89685
54.882259 12.87903 136.89516
55.48399 12.890455 136.90921
56.084694 12.903794 136.92851
56.704052 12.904854 136.93073
57.302319 12.895119 136.91954
57.910446 12.889739 136.93149
58.495888 12.904693 136.89339
59.103443 12.901077 136.91147
59.700386 12.895307 136.93379
60.045605 13.112389 136.92079
30.381231 13.344609 136.8517
30.912333 13.473617 136.88005
31.491257 13.510956 136.89937
32.094814 13.504761 136.89073
32.696487 13.513585 136.88499
33.294479 13.496051 136.88121
33.898567 13.49043 136.87343
34.509079 13.506111 136.8701
35.097569 13.509037 136.86601
35.697575 13.49707 136.86798
36.294827 13.495212 136.86237
36.88966 13.493739 136.88382
37.498299 13.504126 136.87051
38.104576 13.503834 136.87489
38.698093 13.502544 136.86858
39.29443 13.482738 136.87732
39.900257 13.497416 136.85675
40.505463 13.501052 136.86838
41.107037 13.508316 136.86211
41.713303 13.495695 136.85197
42.31028 13.489374 136.85062
42.890049 13.483576 136.86118
43.506092 13.5131 136.8553
44.057579 13.515714 136.85594
44.704304 13.513679 136.85643
45.310135 13.511596 136.85246
45.892818 13.495668 136.84627
46.509903 13.549422 136.83844
47.088253 13.508612 136.84296
47.693375 13.508841 136.8508
48.317902 13.464928 136.84288
48.883419 13.48764 136.84769
49.51712 13.540234 136.84894
50.121716 13.499339 136.84317
50.725227 13.498621 136.8419
51.315872 13.514017 136.83528
51.905682 13.502942 136.84703
52.508644 13.498209 136.86456
53.116295 13.51163 136.87915
53.710091 13.494569 136.87399
54.304558 13.497376 136.89514
54.88784 13.49473 136.91042
55.491657 13.485082 136.89745
56.091099 13.505633 136.90791
56.695412 13.494675 136.90663
57.312229 13.489747 136.92612
57.908859 13.498051 136.88647
58.488926 13.498549 136.91414
59.091461 13.49194 136.91759
59.706036 13.505296 136.90146
60.192425 13.560188 136.91841
30.971352 13.896558 136.82477
31.546207 14.066153 136.85156
32.099453 14.107112 136.89235
32.697296 14.105517 136.90134
33.303108 14.095768 136.88306
33.89711 14.094523 136.87932
34.497456 14.113776 136.87923
35.101738 14.0924 136.87996
35.703579 14.097932 136.87494
36.30344 14.101235 136.87486
36.897404 14.099616 136.8712
37.497101 14.104532 136.87105
38.094036 14.102047 136.86967
38.695053 14.09284 136.86646
39.292057 14.086596 136.85197
39.886196 14.100809 136.84991
40.485752 14.102503 136.84483
41.08947 14.096704 136.85611
41.711514 14.098213 136.85202
42.308784 14.101938 136.85403
42.892887 14.098126 136.84023
43.509808 14.093181 136.84753
44.106716 14.119133 136.85721
44.690243 14.091976 136.85268
45.297462 14.073781 136.84938
45.895836 14.102862 136.85011
46.482277 14.09233 136.84357
47.088356 14.111831 136.843
47.68668 14.127951 136.8302
48.291618 14.077726 136.85338
48.901363 14.125062 136.83952
49.502567 14.056012 136.83763
50.11216 14.065265 136.83273
50.688541 14.099569 136.83853
51.283424 14.108652 136.83708
51.902252 14.100261 136.84293
52.499878 14.101757 136.86292
53.089378 14.095435 136.86803
53.703602 14.104234 136.87161
54.315903 14.098983 136.89018
54.909512 14.102608 136.88313
55.489006 14.094119 136.88832
56.092487 14.099833 136.90158
56.703075 14.10296 136.91875
57.312332 14.087465 136.90251
57.888153 14.098175 136.882
58.501694 14.114877 136.8922
59.096767 14.083585 136.89073
59.683495 14.121761 136.88544
60.291061 14.102254 136.89178
60.647858 14.24675 136.9216
31.687952 14.467143 136.83403
32.127258 14.654808 136.86023
32.69875 14.705655 136.88338
33.292603 14.69401 136.9014
33.89769 14.697893 136.8791
34.499821 14.696382 136.88829
35.09668 14.696109 136.88341
35.694477 14.704349 136.87846
36.2953 14.697114 136.86737
36.889771 14.70933 136.86568
37.486412 14.691261 136.87236
38.090813 14.69773 136.85405
38.693489 14.69752 136.85078
39.302277 14.694231 136.85484
39.915367 14.691263 136.8502
40.507668 14.686207 136.84669
41.10141 14.701636 136.85951
41.695831 14.702723 136.85611
42.29604 14.694628 136.85138
42.890747 14.709163 136.85106
43.503559 14.697922 136.85889
44.069172 14.716083 136.8573
44.681118 14.684157 136.85364
45.270451 14.696647 136.85344
45.874184 14.698675 136.8414
46.453804 14.661581 136.8434
47.079136 14.698574 136.83125
47.72842 14.710134 136.84705
48.302792 14.746825 136.84882
48.916607 14.701524 136.84059
49.492687 14.685702 136.85612
50.134159 14.686256 136.83293
50.706398 14.746262 136.84
51.314137 14.701716 136.84531
51.905117 14.693496 136.85298
52.487602 14.692722 136.85648
53.097851 14.696681 136.86778
53.714069 14.701032 136.85475
54.307667 14.706079 136.87004
54.919365 14.695174 136.88
55.483429 14.712993 136.89751
56.108082 14.707666 136.8933
56.711273 14.715304 136.89685
57.296371 14.728862 136.87976
57.900467 14.692419 136.88976
58.505745 14.694564 136.89859
59.099926 14.721875 136.87836
59.694054 14.704169 136.8727
60.281208 14.686923 136.86444
60.781517 14.749231 136.87549
32.313023 15.100306 136.82004
32.774357 15.229016 136.85103
33.296722 15.288723 136.87451
33.905148 15.305346 136.89626
34.501823 15.29772 136.89252
35.105373 15.304835 136.88158
35.702713 15.292783 136.88058
36.304348 15.295853 136.86917
36.895081 15.301961 136.86215
37.500713 15.293591 136.8591
38.105789 15.307425 136.85564
38.694382 15.28724 136.85742
39.293991 15.305513 136.85619
39.890369 15.299438 136.86119
40.485981 15.292853 136.85295
41.09486 15.276943 136.8553
41.69976 15.305283 136.85786
42.293053 15.277867 136.85382
42.89389 15.299922 136.85486
43.487633 15.2994 136.84941
44.118549 15.307705 136.85376
44.717171 15.28913 136.85437
45.334282 15.320758 136.85075
45.922535 15.294996 136.85016
46.50465 15.316545 136.83867
47.119068 15.280315 136.82829
47.708931 15.341578 136.84425
48.290962 15.398868 136.82634
48.95554 15.286929 136.83952
49.508801 15.32159 136.84952
50.131508 15.304604 136.8445
50.760254 15.288995 136.83379
51.288639 15.299903 136.8356
51.871361 15.273673 136.8439
52.498432 15.294447 136.84395
53.092361 15.298035 136.83908
53.708042 15.294038 136.85797
54.295937 15.29395 136.85568
54.850506 15.27959 136.86531
55.508587 15.30081 136.86089
56.117039 15.29934 136.8745
56.731995 15.309706 136.86407
57.298714 15.276911 136.87727
57.903496 15.2861 136.88303
58.530334 15.298209 136.87753
59.141373 15.323708 136.8587
59.681736 15.275294 136.86955
60.295311 15.286503 136.86942
60.858227 15.322741 136.85927
61.212215 15.306868 136.82381
32.884632 15.768461 136.8145
33.399639 15.816423 136.85065
33.886627 15.89978 136.87798
34.493324 15.892547 136.88927
35.097984 15.905588 136.87787
35.695183 15.894197 136.87405
36.300755 15.905154 136.86943
36.898365 15.904459 136.86955
37.498676 15.894618 136.85582
38.101978 15.900971 136.85619
38.696606 15.896238 136.85274
39.292522 15.890386 136.86037
39.898174 15.905653 136.84683
40.490032 15.899647 136.85786
41.096844 15.899362 136.8439
41.710827 15.900527 136.84656
42.311737 15.892632 136.84688
42.914471 15.90685 136.84711
43.509052 15.883358 136.8474
44.099731 15.896956 136.85014
44.676365 15.896332 136.8466
45.270142 15.90219 136.85243
45.873707 15.914959 136.85345
46.490932 15.916139 136.84531
47.098808 15.879119 136.83003
47.638149 15.965021 136.84279
48.271767 15.88734 136.83879
48.867142 15.924346 136.8382
49.522491 15.973851 136.85249
50.143021 15.883371 136.83496
50.64505 15.93007 136.84276
51.321819 15.872596 136.84001
51.878571 15.936829 136.83708
52.483887 15.901245 136.83195
53.103699 15.875035 136.83348
53.701233 15.886563 136.85152
54.295513 15.896682 136.84235
54.898048 15.919191 136.85593
55.480049 15.901021 136.87685
56.12344 15.882704 136.85938
56.657169 15.930725 136.86356
57.28056 15.86594 136.87962
57.905239 15.915805 136.88162
58.498917 15.893813 136.87079
59.110317 15.893356 136.85214
59.714794 15.889251 136.87289
60.326702 15.878985 136.84047
60.820229 15.799138 136.83121
33.557072 16.221569 136.8362
34.005936 16.385723 136.84819
34.511024 16.479654 136.87473
35.093899 16.506756 136.88651
35.69968 16.509031 136.87399
36.304771 16.495937 136.88109
36.895699 16.500633 136.87515
37.499729 16.494526 136.8743
38.098568 16.5026 136.87617
38.730587 16.515535 136.85185
39.311413 16.502705 136.87025
39.903225 16.490417 136.85307
40.501301 16.50005 136.86037
41.103954 16.495436 136.8457
41.698311 16.510481 136.84692
42.305347 16.52733 136.84605
42.876476 16.486879 136.84694
43.488781 16.515762 136.83772
44.091938 16.494076 136.84702
44.701893 16.456251 136.85147
45.293423 16.503071 136.84169
45.907555 16.512831 136.84843
46.514488 16.507265 136.86447
47.073051 16.498367 136.8425
47.6749 16.458687 136.8381
48.295292 16.540277 136.84123
48.924938 16.521444 136.84314
49.472504 16.471861 136.86353
50.109215 16.463861 136.83823
50.661953 16.4844 136.83121
51.345642 16.465004 136.82623
51.894802 16.437613 136.81868
52.512375 16.485292 136.83672
53.091862 16.49369 136.82678
53.681377 16.518353 136.83829
54.278191 16.497393 136.84143
54.904858 16.473921 136.84111
55.506596 16.508327 136.85371
56.105312 16.489819 136.84863
56.661064 16.481901 136.84735
57.298756 16.523487 136.8741
57.9165 16.507584 136.86522
58.462463 16.523293 136.86331
59.097919 16.507406 136.8644
59.667747 16.491148 136.85231
60.295792 16.503178 136.82193
60.755657 16.430857 136.82407
34.670349 17.003469 136.86714
35.11694 17.084738 136.86673
35.70079 17.10607 136.88721
36.298401 17.111998 136.8772
36.903038 17.100977 136.87794
37.508503 17.095703 136.87212
38.105583 17.092648 136.86258
38.684998 17.093735 136.86418
39.280685 17.101828 136.84496
39.879662 17.099531 136.85735
40.50592 17.124578 136.85257
41.115387 17.069269 136.86128
41.706329 17.099865 136.84253
42.313389 17.091595 136.84921
42.925041 17.104385 136.83977
43.509422 17.093681 136.8419
44.106041 17.100529 136.84904
44.690361 17.112881 136.84521
45.304253 17.132065 136.85649
45.919334 17.095232 136.85738
46.504566 17.082195 136.84834
47.120617 17.110935 136.85109
47.711517 17.161419 136.84584
48.271797 17.111191 136.83922
48.922668 17.074442 136.82637
49.502518 17.162157 136.84299
50.103424 17.132599 136.84062
50.751652 17.134323 136.85513
51.281818 17.066889 136.81631
51.921211 17.10004 136.81294
52.481777 17.13131 136.83965
53.116398 17.094458 136.81883
53.666607 17.080547 136.83206
54.320702 17.093569 136.84148
54.896393 17.098019 136.85931
55.5093 17.098717 136.84354
56.108276 17.124908 136.85899
56.729012 17.106874 136.85239
57.302559 17.103815 136.88707
57.906265 17.099644 136.86351
58.50951 17.087542 136.86227
59.10865 17.100302 136.86105
59.670483 17.11762 136.85463
60.207973 17.078783 136.81905
60.819859 17.02195 136.8071
35.233406 17.564754 136.84171
35.705036 17.686726 136.86415
36.299587 17.703381 136.88643
36.881779 17.703665 136.87575
37.487827 17.705612 136.8708
38.097672 17.689495 136.86594
38.713455 17.692863 136.85533
39.309887 17.697426 136.8606
39.916283 17.700541 136.84802
40.515583 17.69446 136.84833
41.102776 17.705143 136.85184
41.704037 17.699247 136.8382
42.296204 17.689102 136.84155
42.889439 17.702679 136.8381
43.513809 17.685551 136.83844
44.100399 17.702772 136.84993
44.692734 17.674915 136.84589
45.269855 17.654732 136.85623
45.91132 17.687466 136.85542
46.494335 17.693752 136.84657
47.130955 17.700792 136.84698
47.710728 17.695217 136.83392
48.266376 17.724255 136.8215
48.892181 17.739023 136.82553
49.514584 17.656647 136.83534
50.071297 17.615515 136.82784
50.652096 17.677685 136.84334
51.326283 17.681364 136.81258
51.895451 17.616304 136.82178
52.495281 17.7374 136.81599
53.109943 17.691833 136.82246
53.671932 17.734932 136.83099
54.260601 17.684305 136.84833
54.894955 17.705185 136.83148
55.494965 17.724491 136.84932
56.094742 17.712456 136.84242
56.677635 17.710911 136.85051
57.269695 17.705877 136.87737
57.927467 17.694525 136.8634
58.456051 17.656017 136.85455
59.087986 17.697823 136.8576
59.682568 17.703245 136.85663
60.125584 17.6569 136.81758
35.844074 18.198092 136.84061
36.312092 18.285463 136.86981
36.9217 18.302826 136.88765
37.508453 18.301327 136.89101
38.100487 18.300407 136.87376
38.691738 18.294748 136.85713
39.293331 18.297577 136.84789
39.895031 18.306103 136.847
40.483688 18.302898 136.84845
41.0895 18.301264 136.83881
41.675369 18.308001 136.85976
42.281155 18.2887 136.84021
42.866928 18.305483 136.8387
43.481251 18.310762 136.84865
44.075977 18.288877 136.84892
44.67527 18.297693 136.84209
45.288277 18.268963 136.84702
45.899212 18.303755 136.84596
46.500313 18.297394 136.8463
47.112881 18.302759 136.83746
47.747997 18.356684 136.84338
48.2771 18.289589 136.84337
48.872417 18.291168 136.83803
49.530735 18.22464 136.82195
50.162834 18.21113 136.82011
50.607281 18.379089 136.82802
51.208561 18.397074 136.8279
51.900982 18.240509 136.80844
52.501122 18.183887 136.81125
53.103401 18.335039 136.83841
53.720592 18.28023 136.82387
54.323277 18.305309 136.8293
54.915977 18.301695 136.8316
55.501801 18.292721 136.83102
56.106419 18.317879 136.84868
56.703239 18.300312 136.83743
57.293453 18.284376 136.85165
57.867901 18.33849 136.85867
58.497349 18.295967 136.85547
59.090073 18.289686 136.85564
59.513767 18.289135 136.83669
36.402657 18.769215 136.84729
36.908249 18.880911 136.88605
37.475273 18.889404 136.88091
38.085632 18.902502 136.88002
38.690987 18.91848 136.87267
39.303467 18.898211 136.84834
39.903645 18.888638 136.84599
40.523407 18.902922 136.83092
41.10107 18.890709 136.8365
41.71785 18.91312 136.8436
42.309418 18.893696 136.83698
42.904247 18.88657 136.84238
43.478584 18.923819 136.84604
44.076061 18.914036 136.84262
44.674236 18.906109 136.84494
45.302269 18.8848 136.84007
45.892387 18.909803 136.83844
46.529781 18.918322 136.85004
47.099197 18.903086 136.85013
47.687977 18.881298 136.85539
48.254303 18.919186 136.84531
48.954216 18.918827 136.82939
49.550877 18.860085 136.84427
50.058537 18.908737 136.82155
50.839695 18.914619 136.8166
51.503338 18.872501 136.81317
51.884056 18.78429 136.81911
52.506783 18.900625 136.82552
53.111919 18.913212 136.82132
53.712116 18.93062 136.81514
54.322998 18.873158 136.83545
54.918285 18.910299 136.83043
55.487175 18.925772 136.82587
56.085545 18.891998 136.82745
56.675247 18.893023 136.8418
57.295795 18.888144 136.85025
57.898342 18.903513 136.8447
58.474739 18.903856 136.85223
59.136978 18.917641 136.84996
59.579567 18.870682 136.83601
37.040112 19.356178 136.83589
37.527542 19.493311 136.87137
38.10704 19.49431 136.8763
38.704582 19.480209 136.86166
39.319542 19.501619 136.86546
39.919247 19.497658 136.84996
40.50676 19.508974 136.85585
41.103115 19.493452 136.84126
41.71381 19.493628 136.84456
42.318836 19.504805 136.83936
42.922649 19.49777 136.83835
43.499432 19.488403 136.84726
44.074646 19.488419 136.84279
44.680908 19.508533 136.83292
45.318489 19.497021 136.85191
45.889912 19.512457 136.85295
46.5308 19.475605 136.84813
47.054119 19.533701 136.83707
47.725136 19.499895 136.85219
48.322021 19.461121 136.84032
48.912643 19.582119 136.8447
49.444233 19.503393 136.83131
50.015652 19.662926 136.81566
50.577629 19.651276 136.83385
51.021011 19.520998 136.81245
51.961506 19.539795 136.82607
52.519588 19.435001 136.81476
53.10939 19.384724 136.80705
53.693089 19.505053 136.82057
54.275345 19.475031 136.8179
54.929974 19.466206 136.84053
55.531582 19.4998 136.82997
56.119503 19.476292 136.82886
56.714569 19.506342 136.83916
57.28841 19.531797 136.84322
57.911247 19.509571 136.8495
58.48838 19.516275 136.86197
59.03606 19.466404 136.85851
59.532349 19.516518 136.8586
37.619667 19.996334 136.82787
38.102512 20.103682 136.85693
38.695965 20.098635 136.86194
39.274887 20.105833 136.86818
39.885967 20.088678 136.85332
40.493237 20.098434 136.84859
41.118122 20.091431 136.84868
41.704235 20.08453 136.85406
42.285248 20.072397 136.83888
42.926945 20.074205 136.82973
43.492264 20.088072 136.84813
44.101032 20.088602 136.82874
44.693813 20.10154 136.83392
45.322086 20.120033 136.84547
45.915997 20.072544 136.82678
46.501259 20.109306 136.8324
47.124744 20.031387 136.84886
47.647137 20.110338 136.842
48.360703 20.089941 136.86142
48.829342 20.056173 136.83641
49.4631 20.112688 136.83145
50.082157 20.058891 136.81615
50.732338 20.187223 136.82838
51.16169 20.119198 136.81752
51.953743 20.124609 136.83688
52.462502 20.103222 136.82155
53.00346 20.10631 136.81731
53.801491 19.971729 136.80331
54.325722 20.111818 136.81754
54.920189 20.08918 136.8192
55.500397 20.103945 136.82567
56.112682 20.126497 136.82652
56.710907 20.107786 136.8468
57.319191 20.094435 136.84111
57.890396 20.106415 136.83998
58.482254 20.119141 136.85555
59.011013 20.121325 136.85184
59.589394 20.106277 136.85368
38.149929 20.570166 136.83798
38.681698 20.676786 136.86723
39.266403 20.694366 136.87434
39.884483 20.705412 136.86011
40.498386 20.709093 136.86029
41.080147 20.69179 136.85553
41.719894 20.688931 136.83502
42.329849 20.695791 136.82872
42.912846 20.67864 136.83559
43.482536 20.712603 136.83337
44.087482 20.695673 136.83601
44.716911 20.704258 136.83318
45.343937 20.723974 136.83237
45.936687 20.687046 136.84346
46.467346 20.732533 136.84081
47.083481 20.737991 136.83299
47.723701 20.686516 136.8367
48.316334 20.738039 136.83072
48.838295 20.688679 136.81757
49.4925 20.68611 136.82803
50.05645 20.754126 136.82962
50.747604 20.798656 136.82407
51.194168 20.669621 136.83044
51.716454 20.795469 136.82175
52.613426 20.620178 136.83005
53.186386 20.85412 136.83032
53.737999 20.709873 136.82059
54.340702 20.67976 136.81628
54.947319 20.708813 136.80823
55.527691 20.668808 136.82315
56.097713 20.679213 136.82567
56.707455 20.717642 136.82425
57.322296 20.712942 136.82494
57.896004 20.731728 136.85449
58.500301 20.704067 136.85963
59.090591 20.70055 136.87114
59.597992 20.773634 136.84808
38.337284 21.133999 136.8026
38.775715 21.221918 136.84375
39.29163 21.294111 136.87062
39.879871 21.298485 136.86127
40.48896 21.299286 136.85034
41.103554 21.295439 136.85216
41.686153 21.31402 136.82629
42.271202 21.319229 136.82071
42.909561 21.343956 136.8334
43.511547 21.297676 136.83426
44.113232 21.299273 136.82646
44.711468 21.299763 136.83678
45.302071 21.288975 136.83466
45.875607 21.320063 136.82875
46.474743 21.282255 136.83987
47.042801 21.327272 136.84428
47.753941 21.225773 136.84172
48.296913 21.346191 136.84216
48.897106 21.285351 136.83334
49.42123 21.304941 136.82304
50.136829 21.283087 136.81943
50.6717 21.341143 136.82411
51.189838 21.187815 136.84558
51.880123 21.192987 136.82146
52.478622 21.362604 136.81688
53.090534 21.29916 136.8127
53.753971 21.185789 136.8107
54.366882 21.418558 136.80847
54.922596 21.333723 136.80908
55.528534 21.296766 136.81711
56.09507 21.31636 136.82524
56.691502 21.311792 136.82422
57.318192 21.282097 136.83975
57.904476 21.302879 136.83481
58.494022 21.307644 136.84354
59.064041 21.234995 136.84888
59.499161 21.2097 136.84949
39.317841 21.845697 136.84914
39.892323 21.901415 136.85979
40.499638 21.896276 136.86638
41.120575 21.894423 136.85785
41.701527 21.902405 136.8476
42.291977 21.902851 136.83858
42.910057 21.873146 136.83609
43.496426 21.903391 136.82664
44.136856 21.916729 136.82318
44.6759 21.892601 136.8271
45.276375 21.854603 136.82547
45.893864 21.907675 136.82547
46.537785 21.91888 136.83994
47.124374 21.95363 136.83855
47.703838 21.866594 136.83066
48.292221 21.882597 136.83698
48.918812 21.927999 136.83475
49.486073 21.861639 136.84146
50.122818 21.911438 136.81955
50.694237 21.960625 136.83836
51.321152 21.935429 136.82817
51.955971 21.817783 136.83139
52.523006 21.867016 136.83293
53.159321 21.913485 136.83109
53.690079 21.913782 136.82855
54.321579 22.001225 136.81323
54.941822 21.892141 136.81721
55.511227 21.923971 136.81865
56.082096 21.88035 136.82686
56.699894 21.914244 136.83398
57.310585 21.902323 136.83908
57.885658 21.928522 136.83157
58.469292 21.929142 136.84691
59.031242 21.923399 136.85001
59.507435 21.816174 136.84038
39.495033 22.389318 136.81078
39.920094 22.489851 136.84729
40.509674 22.468601 136.85136
41.100773 22.530689 136.84831
41.662334 22.496628 136.85641
42.283653 22.501081 136.83421
42.86496 22.478779 136.83174
43.540249 22.496012 136.82332
44.101357 22.517479 136.82495
44.70969 22.483389 136.82239
45.307465 22.495296 136.836
45.94751 22.475294 136.82135
46.484497 22.461796 136.83145
47.142467 22.483696 136.82416
47.681061 22.477781 136.83626
48.316257 22.443323 136.83707
48.940144 22.494511 136.82021
49.532337 22.483805 136.83577
50.088963 22.467157 136.82733
50.697899 22.556072 136.82549
51.286003 22.522366 136.82481
51.836327 22.421116 136.83365
52.371525 22.496351 136.82869
53.134289 22.609991 136.82079
53.806606 22.450569 136.80974
54.259342 22.502911 136.84175
54.956078 22.520006 136.80969
55.495575 22.525192 136.81596
56.158226 22.507217 136.83035
56.688972 22.492924 136.83943
57.301933 22.485945 136.83356
57.908489 22.503527 136.82698
58.496967 22.481531 136.82416
59.001808 22.525637 136.83859
59.874779 22.332964 136.83749
40.034283 22.995983 136.82713
40.527714 23.084873 136.87038
41.09119 23.103384 136.85782
41.649502 23.128675 136.83531
42.295036 23.092161 136.8279
42.897541 23.111176 136.83463
43.500599 23.103256 136.82671
44.112953 23.090534 136.82889
44.693203 23.103683 136.82607
45.306892 23.129879 136.83263
45.865902 23.066208 136.83073
46.495781 23.109638 136.82091
47.107189 23.08959 136.83054
47.688618 23.061983 136.84718
48.336857 23.075068 136.84656
48.945179 23.117868 136.82928
49.484322 23.095755 136.83508
50.099155 23.100454 136.83774
50.693108 23.074558 136.83438
51.301884 23.106014 136.83344
51.865215 23.244265 136.81813
52.491982 23.077633 136.82835
53.095318 23.10047 136.81628
53.65266 23.037867 136.828
54.355049 23.149858 136.82895
54.925854 23.04674 136.8152
55.512672 23.096193 136.83212
56.090103 23.05596 136.81424
56.711258 23.089575 136.82329
57.312325 23.156155 136.81747
57.908821 23.082018 136.82468
58.453243 23.100782 136.83334
59.064579 23.091429 136.83093
59.448086 23.130404 136.82854
40.522743 23.620209 136.83606
41.082035 23.709513 136.85442
