# .PCD v0.7 - Point Cloud Data file format
VERSION 0.7
FIELDS x y z
SIZE 4 4 4
TYPE F F F
COUNT 1 1 1
WIDTH 1733
HEIGHT 1
VIEWPOINT 0 0 0 1 0 0 0
POINTS 1733
DATA ascii
51.827999 70.599998 122.8715
51.346199 70.724998 122.8523
51.424 70.724998 122.866
51.5452 70.724998 122.86765
51.664902 70.724998 122.8756
51.7472 70.724998 122.8704
51.8311 70.724998 122.8588
51.260899 70.875 122.8702
51.338699 70.875 122.8839
51.456902 70.875 122.89825
51.579601 70.875 122.8935
51.6604 70.875 122.8946
51.741199 70.875 122.8957
51.821999 70.875 122.8968
51.262402 71 122.8638
51.438999 71 122.8027
51.547451 71 122.8582
51.666401 71 122.8693
51.748699 71 122.8641
51.829498 71 122.8652
51.438999 71.150002 122.8027
51.543701 71.150002 122.87399
51.6679 71.150002 122.863
51.748699 71.150002 122.8641
51.8265 71.150002 122.8778
51.555 71.275002 122.8265
51.6679 71.275002 122.863
51.7472 71.275002 122.8704
51.8265 71.275002 122.8778
51.674 71.400002 122.8376
51.750198 71.400002 122.8577
51.827999 71.400002 122.8715
51.803799 49.849998 122.9728
51.477699 50.049999 122.9811
51.558498 50.049999 122.9822
51.640701 50.049999 122.9769
51.729099 50.049999 122.9464
51.812901 50.049999 122.9348
51.482201 50.150002 122.9621
51.573502 50.150002 122.9189
51.657299 50.150002 122.9073
51.738098 50.150002 122.9084
51.818901 50.150002 122.9095
51.392399 50.25 122.999
51.4897 50.25 122.9304
51.573502 50.25 122.9189
51.6558 50.25 122.9136
51.738098 50.25 122.9084
51.8204 50.25 122.9032
51.2369 50.375 122.9715
51.3297 50.375 122.9219
51.415001 50.375 122.904
51.245899 50.474998 122.9335
51.3312 50.474998 122.9156
51.453102 50.474998 122.9141
51.576599 50.474998 122.9062
51.0769 50.599998 122.963
51.1651 50.599998 122.9324
51.247398 50.599998 122.9272
51.3312 50.599998 122.9156
51.575001 50.599998 122.9125
51.654301 50.599998 122.92
51.738098 50.599998 122.9084
51.075401 50.700001 122.9693
51.163601 50.700001 122.9387
51.248901 50.700001 122.9208
51.334202 50.700001 122.9029
51.455399 50.700001 122.90455
51.576599 50.700001 122.9062
51.657299 50.700001 122.9073
50.913898 50.825001 122.9671
51.043953 50.825001 122.9308
51.169601 50.825001 122.9134
51.253399 50.825001 122.9018
51.334202 50.825001 122.9029
51.454651 50.825001 122.90775
51.573502 50.825001 122.9189
51.6558 50.825001 122.9136
50.834599 50.950001 122.9597
50.9258 50.950001 122.9165
51.049149 50.950001 122.9086
51.1726 50.950001 122.9008
51.253399 50.950001 122.9018
50.6642 51.049999 122.9955
50.753799 51.049999 122.9586
50.843498 51.049999 122.9217
50.928699 51.049999 122.9038
51.7397 51.049999 122.9021
51.818901 51.049999 122.9095
50.670101 51.174999 122.9702
50.7612 51.174999 122.927
50.845001 51.174999 122.9154
50.928699 51.174999 122.9038
51.049149 51.174999 122.9086
51.169601 51.174999 122.9134
51.253399 51.174999 122.9018
51.738098 51.174999 122.9084
51.818901 51.174999 122.9095
50.546753 51.275002 122.978
50.681999 51.275002 122.9195
50.764198 51.275002 122.9143
50.848 51.275002 122.9027
51.1726 51.275002 122.9008
51.250401 51.275002 122.9145
51.3312 51.275002 122.9156
50.420502 51.400002 122.9985
50.510101 51.400002 122.9617
50.643051 51.400002 122.91265
50.7672 51.400002 122.9016
51.090302 51.400002 122.906
51.171101 51.400002 122.9071
51.253399 51.400002 122.9018
51.454651 51.400002 122.90775
51.576599 51.400002 122.9062
51.657299 51.400002 122.9073
50.4338 51.5 122.9416
50.5219 51.5 122.911
50.645248 51.5 122.90315
51.090302 51.5 122.906
51.1726 51.5 122.9008
50.262001 51.625 122.9837
50.353001 51.625 122.9405
50.4426 51.625 122.9036
50.523399 51.625 122.9047
50.686401 51.625 122.9005
50.7672 51.625 122.9016
51.049149 51.625 122.9086
51.171101 51.625 122.9071
51.253399 51.625 122.9018
51.4958 51.625 122.9051
51.573502 51.625 122.9189
51.657299 51.625 122.9073
50.154747 51.75 122.92195
50.279598 51.75 122.9078
50.361801 51.75 122.9025
50.560799 51.75 122.9179
50.681999 51.75 122.9195
50.765701 51.75 122.908
50.848 51.75 122.9027
51.1726 51.75 122.9008
51.4958 51.75 122.9051
51.818901 51.75 122.9095
50.0168 51.849998 122.9931
50.146751 51.849998 122.95675
50.279598 51.849998 122.9078
50.358898 51.849998 122.9152
50.441101 51.849998 122.9099
50.523399 51.849998 122.9047
51.7397 51.849998 122.9021
51.8204 51.849998 122.9032
49.9347 51.950001 122.9983
50.018299 51.950001 122.9868
50.152599 51.950001 122.93145
50.281101 51.950001 122.9014
50.360401 51.950001 122.9088
50.439602 51.950001 122.9163
50.5219 51.950001 122.911
51.1726 51.950001 122.9008
51.250401 51.950001 122.9145
51.332699 51.950001 122.9093
51.454651 51.950001 122.90775
51.575001 51.950001 122.9125
51.6558 51.950001 122.9136
49.937599 52.075001 122.9857
50.0285 52.075001 122.9425
50.148949 52.075001 122.94725
50.281101 52.075001 122.9014
50.439602 52.075001 122.9163
50.5145 52.075001 122.9427
50.604099 52.075001 122.9058
50.765701 52.075001 122.908
50.845001 52.075001 122.9154
50.928699 52.075001 122.9038
51.169601 52.075001 122.9134
51.250401 52.075001 122.9145
51.3312 52.075001 122.9156
51.452347 52.075001 122.91725
51.576599 52.075001 122.9062
51.658901 52.075001 122.901
51.738098 52.075001 122.9084
51.8204 52.075001 122.9032
49.8554 52.174999 122.9909
49.940498 52.174999 122.973
50.032902 52.174999 122.9235
50.154053 52.174999 122.92515
50.2766 52.174999 122.9204
50.358898 52.174999 122.9152
50.439602 52.174999 122.9163
50.520401 52.174999 122.9174
50.641602 52.174999 122.91895
50.762699 52.174999 122.9206
50.845001 52.174999 122.9154
50.927299 52.174999 122.9101
51.171101 52.174999 122.9071
49.692501 52.299999 122.9951
49.781898 52.299999 122.9582
49.864101 52.299999 122.9529
49.953602 52.299999 122.9161
50.0373 52.299999 122.9045
50.158447 52.299999 122.90615
50.2766 52.299999 122.9204
50.3559 52.299999 122.9278
50.439602 52.299999 122.9163
50.5219 52.299999 122.911
50.643799 52.299999 122.9095
50.7672 52.299999 122.9016
51.171101 52.299999 122.9071
51.253399 52.299999 122.9018
51.658901 52.299999 122.901
51.738098 52.299999 122.9084
51.818901 52.299999 122.9095
49.699699 52.400002 122.9634
49.784801 52.400002 122.9455
49.875801 52.400002 122.9023
50.198799 52.400002 122.9067
50.278099 52.400002 122.9141
50.358898 52.400002 122.9152
50.441101 52.400002 122.9099
50.5219 52.400002 122.911
50.64085 52.400002 122.92215
50.765701 52.400002 122.908
51.576599 52.400002 122.9062
51.654301 52.400002 122.92
51.736599 52.400002 122.9147
51.8204 52.400002 122.9032
49.299 52.5 122.9454
49.529598 52.5 122.9992
49.620499 52.5 122.956
49.746651 52.5 122.9355
49.875801 52.5 122.9023
50.0373 52.5 122.9045
50.158447 52.5 122.90615
50.2766 52.5 122.9204
50.3545 52.5 122.9342
50.439602 52.5 122.9163
50.523399 52.5 122.9047
50.645248 52.5 122.90315
50.764198 52.5 122.9143
50.845001 52.5 122.9154
50.9258 52.5 122.9165
51.049149 52.5 122.9086
51.1726 52.5 122.9008
51.253399 52.5 122.9018
51.657299 52.5 122.9073
51.738098 52.5 122.9084
51.817402 52.5 122.9158
49.5397 52.625 122.9549
49.624802 52.625 122.937
49.754646 52.625 122.90065
49.874298 52.625 122.9086
49.956501 52.625 122.9034
50.0373 52.625 122.9045
50.118099 52.625 122.9056
50.239197 52.625 122.9072
50.360401 52.625 122.9088
50.643799 52.625 122.90945
51.171101 52.625 122.9071
51.2519 52.625 122.9082
51.334202 52.625 122.9029
51.657299 52.625 122.9073
49.448898 52.724998 122.9981
49.534 52.724998 122.9802
49.626301 52.724998 122.9307
50.200298 52.724998 122.9003
50.523399 52.724998 122.9047
50.6423 52.724998 122.9158
51.657299 52.724998 122.9073
51.7397 52.724998 122.9021
49.368198 52.825001 122.997
49.4576 52.825001 122.9602
49.541199 52.825001 122.9486
49.6306 52.825001 122.9117
49.753197 52.825001 122.90705
49.874298 52.825001 122.9086
49.955101 52.825001 122.9097
50.035801 52.825001 122.9108
50.15625 52.825001 122.9156
50.278099 52.825001 122.9141
50.360401 52.825001 122.9088
50.684898 52.825001 122.9069
50.764198 52.825001 122.9143
50.848 52.825001 122.9027
51.047649 52.825001 122.91495
51.1726 52.825001 122.9008
49.368198 52.950001 122.997
49.4561 52.950001 122.9665
49.542599 52.950001 122.9423
49.6292 52.950001 122.918
49.753899 52.950001 122.90385
49.874298 52.950001 122.9086
49.953602 52.950001 122.9161
50.0271 52.950001 122.9488
50.115101 52.950001 122.9182
50.2407 52.950001 122.90085
51.171101 52.950001 122.9071
51.2519 52.950001 122.9082
51.334202 52.950001 122.9029
51.7397 52.950001 122.9021
49.287498 53.049999 122.996
49.372501 53.049999 122.9781
49.463299 53.049999 122.9349
49.545502 53.049999 122.9296
49.6306 53.049999 122.9117
49.748848 53.049999 122.92599
49.872898 53.049999 122.915
49.956501 53.049999 122.9034
50.239197 53.049999 122.9072
50.358898 53.049999 122.9152
50.441101 53.049999 122.9099
50.523399 53.049999 122.9047
51.171101 53.049999 122.9071
51.248901 53.049999 122.9208
51.3297 53.049999 122.9219
51.415001 53.049999 122.904
51.818901 53.049999 122.9095
49.290401 53.150002 122.9833
49.374001 53.150002 122.9717
49.461899 53.150002 122.9412
49.5499 53.150002 122.9106
50.198799 53.150002 122.9067
50.278099 53.150002 122.9141
50.360401 53.150002 122.9088
50.560799 53.150002 122.9179
50.681999 53.150002 122.9195
50.764198 53.150002 122.9143
50.8465 53.150002 122.909
51.090302 53.150002 122.906
51.334202 53.150002 122.9029
51.658901 53.150002 122.901
51.738098 53.150002 122.9084
51.818901 53.150002 122.9095
49.252899 53.25 122.9701
49.3783 53.25 122.9528
49.466202 53.25 122.9222
49.5499 53.25 122.9106
49.6306 53.25 122.9117
49.753899 53.25 122.90385
50.197399 53.25 122.913
50.272202 53.25 122.9394
50.3545 53.25 122.9342
50.436699 53.25 122.9289
50.557098 53.25 122.9337
50.679001 53.25 122.9322
50.7612 53.25 122.927
50.8465 53.25 122.909
51.1726 53.25 122.9008
51.454651 53.25 122.90775
51.575001 53.25 122.9125
51.654301 53.25 122.92
51.738098 53.25 122.9084
49.126099 53.375 122.9938
49.211102 53.375 122.9759
49.307598 53.375 122.9074
49.955101 53.375 122.9097
50.034401 53.375 122.9172
50.281101 53.375 122.9014
50.360401 53.375 122.9088
50.4426 53.375 122.9036
50.523399 53.375 122.9047
50.848 53.375 122.9027
50.928699 53.375 122.9038
51.048401 53.375 122.91175
51.1726 53.375 122.9008
51.453903 53.375 122.91095
51.575001 53.375 122.9125
51.657299 53.375 122.9073
51.738098 53.375 122.9084
51.817402 53.375 122.9158
49.045399 53.474998 122.9927
49.130402 53.474998 122.9748
49.222599 53.474998 122.9253
49.348 53.474998 122.9079
49.632099 53.474998 122.9054
49.714298 53.474998 122.9001
50.928699 53.474998 122.9038
51.048401 53.474998 122.91175
51.1726 53.474998 122.9008
51.332699 53.474998 122.9093
51.453148 53.474998 122.9141
49.046799 53.575001 122.9864
49.144699 53.575001 122.9115
49.388401 53.575001 122.9085
49.4706 53.575001 122.9032
49.753899 53.575001 122.90385
49.875801 53.575001 122.9023
49.955101 53.575001 122.9097
50.0373 53.575001 122.9045
50.15625 53.575001 122.9156
50.2766 53.575001 122.9204
50.360401 53.575001 122.9088
50.4426 53.575001 122.9036
50.642349 53.575001 122.9158
50.764198 53.575001 122.9143
50.8465 53.575001 122.909
50.927299 53.575001 122.9101
51.009499 53.575001 122.9049
51.413502 53.575001 122.9104
51.8204 53.575001 122.9032
48.883999 53.700001 122.9905
48.973301 53.700001 122.9537
49.055401 53.700001 122.9484
49.136101 53.700001 122.9495
49.222599 53.700001 122.9253
49.34515 53.700001 122.92055
49.467701 53.700001 122.9159
49.5513 53.700001 122.9043
49.754646 53.700001 122.90065
50.0373 53.700001 122.9045
50.156998 53.700001 122.91245
50.281101 53.700001 122.9014
50.523399 53.700001 122.9047
50.7672 53.700001 122.9016
51.658901 53.700001 122.901
48.84935 53.799999 122.96471
48.976101 53.799999 122.941
49.0569 53.799999 122.9421
49.143299 53.799999 122.9179
49.225498 53.799999 122.9126
49.349449 53.799999 122.90155
49.467701 53.799999 122.9159
49.5499 53.799999 122.9106
49.632099 53.799999 122.9054
49.753899 53.799999 122.90385
49.875801 53.799999 122.9023
49.956501 53.799999 122.9034
50.035801 53.799999 122.9108
50.118099 53.799999 122.9056
50.2407 53.799999 122.90085
51.1726 53.799999 122.9008
51.658901 53.799999 122.901
51.7397 53.799999 122.9021
48.84795 53.924999 122.971
48.9776 53.924999 122.9347
49.0583 53.924999 122.9358
49.146198 53.924999 122.9052
49.228298 53.924999 122.9
49.347252 53.924999 122.9111
49.469101 53.924999 122.9095
49.5499 53.924999 122.9106
50.361801 53.924999 122.9025
50.686401 53.924999 122.9005
50.7672 53.924999 122.9016
51.334202 53.924999 122.9029
51.576599 53.924999 122.9062
51.657299 53.924999 122.9073
51.738098 53.924999 122.9084
51.817402 53.924999 122.9158
48.8479 54.025002 122.971
48.9804 54.025002 122.922
49.225498 54.025002 122.9126
49.307598 54.025002 122.9074
49.752499 54.025002 122.9102
49.875801 54.025002 122.9023
50.200298 54.025002 122.9003
51.1726 54.025002 122.9008
51.455399 54.025002 122.90455
48.722599 54.125 122.9884
48.851547 54.125 122.9552
49.5513 54.125 122.9043
49.624802 54.125 122.937
49.746651 54.125 122.9355
49.875801 54.125 122.9023
50.154049 54.125 122.9251
50.278099 54.125 122.9141
50.361801 54.125 122.9025
50.848 54.125 122.9027
51.090302 54.125 122.906
51.171101 54.125 122.9071
51.818901 54.125 122.9095
48.568401 54.25 122.9546
48.654701 54.25 122.9304
48.7369 54.25 122.9251
48.85865 54.25 122.9236
49.146198 54.25 122.9052
49.226898 54.25 122.9063
49.349449 54.25 122.90155
49.4706 54.25 122.9032
49.5499 54.25 122.9106
49.6292 54.25 122.918
49.751747 54.25 122.91335
49.875801 54.25 122.9023
50.156998 54.25 122.91245
50.278099 54.25 122.9141
50.928699 54.25 122.9038
51.171101 54.25 122.9071
51.2519 54.25 122.9082
51.334202 54.25 122.9029
48.558399 54.375 122.9989
48.644798 54.375 122.9747
48.734001 54.375 122.9378
48.8218 54.375 122.9072
48.943649 54.375 122.90565
49.228298 54.375 122.9
49.348 54.375 122.90795
49.467701 54.375 122.9159
49.5499 54.375 122.9106
50.239948 54.375 122.90405
50.358898 54.375 122.9152
50.439602 54.375 122.9163
50.5219 54.375 122.911
50.644501 54.375 122.90635
50.7672 54.375 122.9016
50.848 54.375 122.9027
50.928699 54.375 122.9038
51.009499 54.375 122.9049
51.1726 54.375 122.9008
51.250401 54.375 122.9145
51.3297 54.375 122.9219
51.453148 54.375 122.9141
51.575001 54.375 122.9125
51.6558 54.375 122.9136
51.736599 54.375 122.9147
51.817402 54.375 122.9158
48.477798 54.474998 122.9978
48.558399 54.474998 122.9989
48.650501 54.474998 122.9493
48.735401 54.474998 122.9314
48.857903 54.474998 122.92675
48.983299 54.474998 122.9094
49.348751 54.474998 122.90475
49.461899 54.474998 122.9412
49.547001 54.474998 122.9233
49.875801 54.474998 122.9023
50.239948 54.474998 122.90405
50.358898 54.474998 122.9152
50.441101 54.474998 122.9099
50.686401 54.474998 122.9005
50.765701 54.474998 122.908
50.848 54.474998 122.9027
50.927299 54.474998 122.9101
51.253399 54.474998 122.9018
51.3312 54.474998 122.9156
51.411999 54.474998 122.9167
51.738098 54.474998 122.9084
51.8204 54.474998 122.9032
48.480598 54.599998 122.9851
48.568401 54.599998 122.9546
48.6576 54.599998 122.9177
48.943649 54.599998 122.90565
49.146198 54.599998 122.9052
49.225498 54.599998 122.9126
49.309101 54.599998 122.901
49.4706 54.599998 122.9032
49.5499 54.599998 122.9106
49.632099 54.599998 122.9054
49.753197 54.599998 122.90705
49.871399 54.599998 122.9213
49.952202 54.599998 122.9224
50.032902 54.599998 122.9235
50.152599 54.599998 122.93145
50.278099 54.599998 122.9141
50.358898 54.599998 122.9152
50.439602 54.599998 122.9163
50.5219 54.599998 122.911
50.604099 54.599998 122.9058
50.7672 54.599998 122.9016
50.843498 54.599998 122.9217
50.9258 54.599998 122.9165
51.253399 54.599998 122.9018
51.332699 54.599998 122.9093
51.4958 54.599998 122.9051
51.576599 54.599998 122.9062
51.657299 54.599998 122.9073
51.738098 54.599998 122.9084
51.818901 54.599998 122.9095
48.489101 54.700001 122.9472
48.572601 54.700001 122.9356
48.659 54.700001 122.9114
48.7411 54.700001 122.9061
48.823299 54.700001 122.9009
49.139 54.700001 122.9369
49.223999 54.700001 122.919
49.347298 54.700001 122.9111
49.467701 54.700001 122.9159
49.547001 54.700001 122.9233
49.6292 54.700001 122.918
49.751747 54.700001 122.91335
49.874298 54.700001 122.9086
49.953602 54.700001 122.9161
50.032902 54.700001 122.9235
50.1548 54.700001 122.92195
50.560051 54.700001 122.9211
50.684898 54.700001 122.9069
51.1726 54.700001 122.9008
51.4958 54.700001 122.9051
51.575001 54.700001 122.9125
51.6558 54.700001 122.9136
51.738098 54.700001 122.9084
48.324902 54.825001 122.9577
48.4417 54.825001 122.9783
48.562698 54.825001 122.9799
48.643398 54.825001 122.981
48.725498 54.825001 122.9757
48.813301 54.825001 122.9452
48.94075 54.825001 122.9183
49.0611 54.825001 122.9231
49.143299 54.825001 122.9179
49.226898 54.825001 122.9063
49.347252 54.825001 122.9111
49.467701 54.825001 122.9159
49.753197 54.825001 122.907
49.872898 54.825001 122.915
50.197399 54.825001 122.913
50.279598 54.825001 122.9078
50.5219 54.825001 122.911
50.643051 54.825001 122.91265
51.1726 54.825001 122.9008
51.494301 54.825001 122.9115
51.575001 54.825001 122.9125
51.657299 54.825001 122.9073
51.736599 54.825001 122.9147
51.8204 54.825001 122.9032
48.451553 54.950001 122.934
48.574001 54.950001 122.9293
48.653301 54.950001 122.9367
48.734001 54.950001 122.9378
48.855751 54.950001 122.9362
48.9776 54.950001 122.9347
49.146198 54.950001 122.9052
49.225498 54.950001 122.9126
49.34655 54.950001 122.91425
49.467701 54.950001 122.9159
49.794998 54.950001 122.9012
49.875801 54.950001 122.9023
50.200298 54.950001 122.9003
50.523399 54.950001 122.9047
50.6423 54.950001 122.9158
50.765701 54.950001 122.908
50.8465 54.950001 122.909
50.928699 54.950001 122.9038
48.242802 55.049999 122.9629
48.322102 55.049999 122.9703
48.4459 55.049999 122.9593
48.5783 55.049999 122.9103
48.6604 55.049999 122.9051
48.983299 55.049999 122.9094
49.0611 55.049999 122.9231
49.136101 55.049999 122.9495
49.2183 55.049999 122.9443
49.344398 55.049999 122.92375
49.4706 55.049999 122.9032
49.714298 55.049999 122.9001
50.154751 55.049999 122.92195
50.2766 55.049999 122.9204
50.357399 55.049999 122.9215
50.439602 55.049999 122.9163
50.686401 55.049999 122.9005
50.765701 55.049999 122.908
50.8465 55.049999 122.909
51.090302 55.049999 122.906
48.245602 55.174999 122.9503
48.323502 55.174999 122.964
48.445251 55.174999 122.96245
48.572601 55.174999 122.9356
48.6562 55.174999 122.924
48.8218 55.174999 122.9072
48.902599 55.174999 122.9083
49.226898 55.174999 122.9063
49.309101 55.174999 122.901
49.794998 55.174999 122.9012
49.874298 55.174999 122.9086
50.198799 55.174999 122.9067
50.281101 55.174999 122.9014
50.361801 55.174999 122.9025
50.439602 55.174999 122.9163
50.5219 55.174999 122.911
50.686401 55.174999 122.9005
50.764198 55.174999 122.9143
50.8465 55.174999 122.909
51.657299 55.174999 122.9073
51.738098 55.174999 122.9084
51.817402 55.174999 122.9158
48.162102 55.299999 122.9619
48.245602 55.299999 122.9503
48.327702 55.299999 122.945
48.451553 55.299999 122.934
48.5797 55.299999 122.904
48.6604 55.299999 122.9051
48.7411 55.299999 122.9061
48.8218 55.299999 122.9072
48.903999 55.299999 122.902
49.469101 55.299999 122.9095
49.5499 55.299999 122.9106
49.632099 55.299999 122.9054
49.754646 55.299999 122.90065
49.874298 55.299999 122.9086
49.953602 55.299999 122.9161
50.032902 55.299999 122.9235
50.118099 55.299999 122.9056
50.644501 55.299999 122.90635
50.7672 55.299999 122.9016
50.848 55.299999 122.9027
51.090302 55.299999 122.906
51.334202 55.299999 122.9029
51.8204 55.299999 122.9032
48.163502 55.400002 122.9555
48.247002 55.400002 122.944
48.330502 55.400002 122.9324
48.414101 55.400002 122.9208
48.823299 55.400002 122.9009
48.903999 55.400002 122.902
49.388401 55.400002 122.9085
49.466202 55.400002 122.9222
49.541199 55.400002 122.9486
49.6292 55.400002 122.918
49.751747 55.400002 122.91335
49.871399 55.400002 122.9213
49.952202 55.400002 122.9224
50.035801 55.400002 122.9108
50.158447 55.400002 122.90615
50.279598 55.400002 122.9078
50.360401 55.400002 122.9088
50.439602 55.400002 122.9163
50.5219 55.400002 122.911
50.643799 55.400002 122.9095
50.928699 55.400002 122.9038
51.047649 55.400002 122.91495
51.168098 55.400002 122.9197
51.248901 55.400002 122.9208
51.332699 55.400002 122.9093
48.155102 55.525002 122.9935
48.244202 55.525002 122.9566
48.331902 55.525002 122.9261
48.414101 55.525002 122.9208
48.659 55.525002 122.9114
48.7411 55.525002 122.9061
48.823299 55.525002 122.9009
48.984699 55.525002 122.903
49.063999 55.525002 122.9105
49.144699 55.525002 122.9115
49.389801 55.525002 122.9021
49.461899 55.525002 122.9412
49.547001 55.525002 122.9233
49.632099 55.525002 122.9054
49.752449 55.525002 122.9102
49.872898 55.525002 122.915
49.956501 55.525002 122.9034
50.200298 55.525002 122.9003
50.361801 55.525002 122.9025
50.439602 55.525002 122.9163
50.520401 55.525002 122.9174
50.645248 55.525002 122.90315
51.090302 55.525002 122.906
51.169601 55.525002 122.9134
51.253399 55.525002 122.9018
51.658901 55.525002 122.901
51.738098 55.525002 122.9084
51.817402 55.525002 122.9158
48.078701 55.625 122.9734
48.166401 55.625 122.9429
48.248402 55.625 122.9376
48.329102 55.625 122.9387
48.416901 55.625 122.9081
48.5797 55.625 122.904
48.6576 55.625 122.9177
48.732601 55.625 122.9441
48.814701 55.625 122.9389
48.942249 55.625 122.912
49.049702 55.625 122.9737
49.136101 55.625 122.9495
49.257202 55.625 122.95115
49.371101 55.625 122.9844
49.466202 55.625 122.9222
49.5513 55.625 122.9043
49.632099 55.625 122.9054
49.753899 55.625 122.90385
49.875801 55.625 122.9023
49.956501 55.625 122.9034
50.927299 55.625 122.9101
51.658901 55.625 122.901
51.738098 55.625 122.9084
51.817402 55.625 122.9158
47.999401 55.75 122.966
48.081501 55.75 122.9608
48.164902 55.75 122.9492
48.247002 55.75 122.944
48.327702 55.75 122.945
48.454399 55.75 122.92135
49.345848 55.75 122.91745
49.464802 55.75 122.9285
49.548401 55.75 122.917
50.118099 55.75 122.9056
50.200298 55.75 122.9003
50.4426 55.75 122.9036
50.520401 55.75 122.9174
50.604099 55.75 122.9058
50.8465 55.75 122.909
50.9258 55.75 122.9165
51.049149 55.75 122.9086
51.168098 55.75 122.9197
51.250401 55.75 122.9145
51.8204 55.75 122.9032
48.043251 55.849998 122.95074
48.162102 55.849998 122.9619
48.244202 55.849998 122.9566
48.331902 55.849998 122.9261
48.458649 55.849998 122.90235
48.5783 55.849998 122.9103
48.6576 55.849998 122.9177
48.7397 55.849998 122.9125
48.823299 55.849998 122.9009
48.984699 55.849998 122.903
49.065399 55.849998 122.9041
49.388401 55.849998 122.9085
49.469101 55.849998 122.9095
49.751747 55.849998 122.91335
49.871399 55.849998 122.9213
49.953602 55.849998 122.9161
50.035801 55.849998 122.9108
50.156998 55.849998 122.91245
50.281101 55.849998 122.9014
50.4426 55.849998 122.9036
50.5219 55.849998 122.911
50.644501 55.849998 122.90635
50.764198 55.849998 122.9143
51.658901 55.849998 122.901
51.738098 55.849998 122.9084
47.8451 55.974998 122.9323
47.921501 55.974998 122.9523
48.048149 55.974998 122.9286
48.169201 55.974998 122.9302
48.251301 55.974998 122.925
48.983299 55.974998 122.9094
49.063999 55.974998 122.9105
49.874298 55.974998 122.9086
49.956501 55.974998 122.9034
50.279598 55.974998 122.9078
50.357399 55.974998 122.9215
50.438202 55.974998 122.9226
50.5219 55.974998 122.911
51.087299 55.974998 122.9187
51.168098 55.974998 122.9197
51.455399 55.974998 122.90455
47.8451 56.099998 122.9323
47.928501 56.099998 122.9207
48.051651 56.099998 122.9128
48.170601 56.099998 122.9239
48.457253 56.099998 122.90871
48.5769 56.099998 122.9166
48.6604 56.099998 122.9051
49.065399 56.099998 122.9041
49.1376 56.099998 122.9432
49.222599 56.099998 122.9253
49.34655 56.099998 122.91425
49.467701 56.099998 122.9159
49.5499 56.099998 122.9106
49.632099 56.099998 122.9054
49.875801 56.099998 122.9023
50.0373 56.099998 122.9045
50.239948 56.099998 122.90405
50.643051 56.099998 122.91265
50.765701 56.099998 122.908
50.848 56.099998 122.9027
51.0499 56.099998 122.90545
51.1726 56.099998 122.9008
47.8325 56.200001 122.9892
47.963249 56.200001 122.9465
48.081501 56.200001 122.9608
48.454399 56.200001 122.92136
48.823299 56.200001 122.9009
48.943649 56.200001 122.9057
49.062599 56.200001 122.9168
49.144699 56.200001 122.9115
49.228298 56.200001 122.9
49.4706 56.200001 122.9032
49.5513 56.200001 122.9043
49.632099 56.200001 122.9054
49.754646 56.200001 122.90065
49.875801 56.200001 122.9023
50.0373 56.200001 122.9045
50.15625 56.200001 122.9156
50.281101 56.200001 122.9014
50.361801 56.200001 122.9025
50.4426 56.200001 122.9036
50.643749 56.200001 122.9095
50.765701 56.200001 122.908
47.8465 56.325001 122.9259
47.927101 56.325001 122.927
48.010601 56.325001 122.9154
48.331902 56.325001 122.9261
48.412601 56.325001 122.9271
48.7411 56.325001 122.9061
48.823299 56.325001 122.9009
49.0611 56.325001 122.9231
49.139 56.325001 122.9369
49.226898 56.325001 122.9063
49.469101 56.325001 122.9095
49.5499 56.325001 122.9106
49.632099 56.325001 122.9054
49.753948 56.325001 122.90385
49.874298 56.325001 122.9086
50.239948 56.325001 122.90405
50.360401 56.325001 122.9088
50.848 56.325001 122.9027
50.927299 56.325001 122.9101
51.049149 56.325001 122.9086
51.1726 56.325001 122.9008
51.2519 56.325001 122.9082
51.3312 56.325001 122.9156
51.453899 56.325001 122.9109
48.047451 56.450001 122.93175
48.166401 56.450001 122.9429
48.255501 56.450001 122.906
48.418301 56.450001 122.9018
48.858601 56.450001 122.92355
48.983299 56.450001 122.9094
49.146198 56.450001 122.9052
49.225498 56.450001 122.9126
49.348 56.450001 122.9079
49.875801 56.450001 122.9023
49.956501 56.450001 122.9034
50.15625 56.450001 122.9156
50.278099 56.450001 122.9141
50.361801 56.450001 122.9025
51.088799 56.450001 122.9123
51.168098 56.450001 122.9197
51.250401 56.450001 122.9145
51.334202 56.450001 122.9029
51.8204 56.450001 122.9032
47.931301 56.575001 122.908
48.174801 56.575001 122.9049
48.7411 56.575001 122.9061
48.823299 56.575001 122.9009
49.228298 56.575001 122.9
49.309101 56.575001 122.901
49.5513 56.575001 122.9043
49.955101 56.575001 122.9097
50.034401 56.575001 122.9172
50.155548 56.575001 122.9188
50.279598 56.575001 122.9078
50.361801 56.575001 122.9025
50.683399 56.575001 122.9132
50.764198 56.575001 122.9143
51.1726 56.575001 122.9008
51.250401 56.575001 122.9145
51.3312 56.575001 122.9156
51.658901 56.575001 122.901
48.499001 56.700001 122.9029
48.5783 56.700001 122.9103
48.659 56.700001 122.9114
48.7411 56.700001 122.9061
49.5499 56.700001 122.9106
49.6306 56.700001 122.9117
49.712799 56.700001 122.9065
50.158447 56.700001 122.90615
50.281101 56.700001 122.9014
50.7672 56.700001 122.9016
51.0499 56.700001 122.90545
51.171101 56.700001 122.9071
51.2519 56.700001 122.9082
51.332699 56.700001 122.9093
51.415001 56.700001 122.904
51.658901 56.700001 122.901
51.738098 56.700001 122.9084
51.8204 56.700001 122.9032
48.499001 56.825001 122.9029
48.7411 56.825001 122.9061
48.857903 56.825001 122.92675
48.974701 56.825001 122.9473
49.0597 56.825001 122.9294
49.226898 56.825001 122.9063
49.34655 56.825001 122.91425
49.469101 56.825001 122.9095
49.5513 56.825001 122.9043
49.632099 56.825001 122.9054
49.751747 56.825001 122.91335
49.8699 56.825001 122.9276
49.953602 56.825001 122.9161
50.0373 56.825001 122.9045
50.200298 56.825001 122.9003
50.360401 56.825001 122.9088
50.441101 56.825001 122.9099
50.686401 56.825001 122.9005
50.7672 56.825001 122.9016
51.1726 56.825001 122.9008
51.576599 56.825001 122.9062
51.657299 56.825001 122.9073
48.5783 56.950001 122.9103
48.653301 56.950001 122.9367
48.7411 56.950001 122.9061
48.823299 56.950001 122.9009
48.984699 56.950001 122.903
49.063999 56.950001 122.9105
49.143299 56.950001 122.9179
49.223999 56.950001 122.919
49.307598 56.950001 122.9074
49.5499 56.950001 122.9106
49.6292 56.950001 122.918
49.751747 56.950001 122.91335
49.871399 56.950001 122.9213
49.955101 56.950001 122.9097
50.197399 56.950001 122.913
50.278099 56.950001 122.9141
50.360401 56.950001 122.9088
50.4426 56.950001 122.9036
50.523399 56.950001 122.9047
50.604099 56.950001 122.9058
51.1726 56.950001 122.9008
51.253399 56.950001 122.9018
51.332699 56.950001 122.9093
51.413502 56.950001 122.9104
48.053051 57.075001 122.90645
48.574001 57.075001 122.9293
48.659 57.075001 122.9114
48.7411 57.075001 122.9061
48.860748 57.075001 122.9141
48.974701 57.075001 122.9473
49.063999 57.075001 122.9105
49.388401 57.075001 122.9085
49.469101 57.075001 122.9095
49.5513 57.075001 122.9043
49.632099 57.075001 122.9054
49.751747 57.075001 122.91335
49.874298 57.075001 122.9086
50.0373 57.075001 122.9045
50.15625 57.075001 122.9156
50.278099 57.075001 122.9141
50.361801 57.075001 122.9025
50.6423 57.075001 122.91585
50.7612 57.075001 122.927
50.8465 57.075001 122.909
51.2519 57.075001 122.9082
51.334202 57.075001 122.9029
48.984699 57.200001 122.903
49.4706 57.200001 122.9032
49.5513 57.200001 122.9043
49.754646 57.200001 122.90065
49.875801 57.200001 122.9023
49.956501 57.200001 122.9034
50.239948 57.200001 122.90405
50.361801 57.200001 122.9025
50.765701 57.200001 122.908
50.848 57.200001 122.9027
48.979 57.299999 122.9284
49.0611 57.299999 122.9231
49.714298 57.299999 122.9001
50.4426 57.299999 122.9036
50.5219 57.299999 122.911
50.64455 57.299999 122.9063
50.765701 57.299999 122.908
50.8465 57.299999 122.909
50.928699 57.299999 122.9038
48.334801 57.424999 122.9134
48.418301 57.424999 122.9018
48.823299 57.424999 122.9009
48.903999 57.424999 122.902
49.4706 57.424999 122.9032
49.547001 57.424999 122.9233
49.6292 57.424999 122.918
49.753197 57.424999 122.907
51.817402 57.424999 122.9158
49.5513 57.549999 122.9043
49.752449 57.549999 122.9102
49.871399 57.549999 122.9213
49.952202 57.549999 122.9224
50.034401 57.549999 122.9172
50.1577 57.549999 122.9093
50.4426 57.549999 122.9036
50.5219 57.549999 122.911
50.604099 57.549999 122.9058
49.228298 57.650002 122.9
49.632099 57.650002 122.9054
49.712799 57.650002 122.9065
49.874298 57.650002 122.9086
49.950699 57.650002 122.9287
50.031399 57.650002 122.9298
50.155548 57.650002 122.9188
51.2519 57.650002 122.9082
51.4958 57.650002 122.9051
48.6604 57.775002 122.9051
48.819 57.775002 122.9199
49.388401 57.775002 122.9085
49.469101 57.775002 122.9095
50.157749 57.775002 122.9093
50.281101 57.775002 122.9014
51.253399 57.775002 122.9018
51.334202 57.775002 122.9029
51.657299 57.775002 122.9073
51.7351 57.775002 122.9211
51.8144 57.775002 122.9285
48.7411 57.875 122.9061
48.823299 57.875 122.9009
49.714298 57.875 122.9001
50.198799 57.875 122.9067
50.281101 57.875 122.9014
50.360401 57.875 122.9088
50.441101 57.875 122.9099
50.523399 57.875 122.9047
51.818901 57.875 122.9095
49.793598 58 122.9076
49.874298 58 122.9086
49.955101 58 122.9097
50.686401 58 122.9005
50.928699 58 122.9038
50.279598 58.099998 122.9078
50.360401 58.099998 122.9088
50.4426 58.099998 122.9036
50.686401 58.099998 122.9005
49.389801 58.224998 122.9021
49.4706 58.224998 122.9032
49.5513 58.224998 122.9043
50.281101 58.224998 122.9014
50.358898 58.224998 122.9152
50.441101 58.224998 122.9099
50.7672 58.224998 122.9016
50.8465 58.224998 122.909
50.928699 58.224998 122.9038
48.8218 58.325001 122.9072
48.902599 58.325001 122.9083
50.683399 58.325001 122.9132
50.764198 58.325001 122.9143
50.8465 58.325001 122.909
49.754646 58.450001 122.90065
50.643749 58.450001 122.9095
50.7672 58.450001 122.9016
51.090302 58.450001 122.906
51.171101 58.450001 122.9071
51.253399 58.450001 122.9018
51.576599 58.450001 122.9062
51.657299 58.450001 122.9073
51.738098 58.450001 122.9084
51.818901 58.450001 122.9095
48.943649 58.549999 122.90565
49.389801 58.549999 122.9021
49.4706 58.549999 122.9032
49.714298 58.549999 122.9001
51.7397 58.549999 122.9021
51.818901 58.549999 122.9095
48.574001 58.674999 122.9293
48.653301 58.674999 122.9367
48.7411 58.674999 122.9061
48.823299 58.674999 122.9009
48.944351 58.674999 122.9025
49.065399 58.674999 122.9041
49.146198 58.674999 122.9052
49.348751 58.674999 122.90475
49.469101 58.674999 122.9095
49.5513 58.674999 122.9043
49.632099 58.674999 122.9054
50.200298 58.674999 122.9003
50.686401 58.674999 122.9005
50.928699 58.674999 122.9038
51.007999 58.674999 122.9112
48.823299 58.775002 122.9009
49.062599 58.775002 122.9168
49.143299 58.775002 122.9179
49.226898 58.775002 122.9063
49.349449 58.775002 122.90155
49.4706 58.775002 122.9032
49.5513 58.775002 122.9043
49.875801 58.775002 122.9023
49.955101 58.775002 122.9097
50.7672 58.775002 122.9016
50.848 58.775002 122.9027
50.928699 58.775002 122.9038
51.009499 58.775002 122.9049
48.984699 58.875 122.903
49.063999 58.875 122.9105
49.146198 58.875 122.9052
49.4706 58.875 122.9032
49.875801 58.875 122.9023
49.955101 58.875 122.9097
50.034401 58.875 122.9172
50.155548 58.875 122.9188
50.281101 58.875 122.9014
51.576599 58.875 122.9062
48.5797 59 122.904
48.6604 59 122.9051
48.983299 59 122.9094
49.0569 59 122.9421
49.388401 59 122.9085
49.467701 59 122.9159
49.5513 59 122.9043
49.754646 59 122.90065
49.875801 59 122.9023
50.118099 59 122.9056
50.200298 59 122.9003
51.1726 59 122.9008
51.576599 59 122.9062
51.658901 59 122.901
48.983299 59.099998 122.9094
49.063999 59.099998 122.9105
49.228298 59.099998 122.9
49.309101 59.099998 122.901
49.714298 59.099998 122.9001
50.158447 59.099998 122.90615
50.5219 59.099998 122.911
50.604099 59.099998 122.9058
50.928699 59.099998 122.9038
51.090302 59.099998 122.906
51.1726 59.099998 122.9008
48.823299 59.200001 122.9009
48.903999 59.200001 122.902
49.226898 59.200001 122.9063
49.344398 59.200001 122.92375
49.4706 59.200001 122.9032
50.2407 59.200001 122.90085
50.643051 59.200001 122.91265
50.7672 59.200001 122.9016
51.6558 59.200001 122.9136
49.875801 59.299999 122.9023
49.953602 59.299999 122.9161
50.032902 59.299999 122.9235
50.1166 59.299999 122.9119
50.684898 59.299999 122.9069
50.765701 59.299999 122.908
51.818901 59.299999 122.9095
49.348751 59.424999 122.90475
49.4706 59.424999 122.9032
49.956501 59.424999 122.9034
50.0373 59.424999 122.9045
50.4426 59.424999 122.9036
51.048401 59.424999 122.91175
51.169601 59.424999 122.9134
51.253399 59.424999 122.9018
51.8204 59.424999 122.9032
48.903999 59.525002 122.902
49.5499 59.525002 122.9106
49.632099 59.525002 122.9054
50.281101 59.525002 122.9014
50.361801 59.525002 122.9025
50.7672 59.525002 122.9016
50.8465 59.525002 122.909
51.090302 59.525002 122.906
51.1726 59.525002 122.9008
49.5499 59.625 122.9106
49.6292 59.625 122.918
49.753197 59.625 122.907
50.0373 59.625 122.9045
50.361801 59.625 122.9025
50.848 59.625 122.9027
51.334202 59.625 122.9029
51.7397 59.625 122.9021
51.818901 59.625 122.9095
48.7411 59.724998 122.9061
49.309101 59.724998 122.901
49.956501 59.724998 122.9034
50.0373 59.724998 122.9045
50.118099 59.724998 122.9056
50.200298 59.724998 122.9003
51.8204 59.724998 122.9032
48.5797 59.849998 122.904
48.8218 59.849998 122.9072
48.943649 59.849998 122.90565
49.389801 59.849998 122.9021
49.4706 59.849998 122.9032
50.441101 59.849998 122.9099
50.518902 59.849998 122.9237
50.643051 59.849998 122.91265
50.7672 59.849998 122.9016
51.171101 59.849998 122.9071
50.4426 59.950001 122.9036
50.523399 59.950001 122.9047
50.642349 59.950001 122.9158
50.762699 59.950001 122.9206
50.845001 59.950001 122.9154
50.927299 59.950001 122.9101
51.0499 59.950001 122.90545
51.171101 59.950001 122.9071
51.253399 59.950001 122.9018
50.644501 60.049999 122.90635
51.1726 60.049999 122.9008
49.144699 60.150002 122.9115
49.226898 60.150002 122.9063
49.4706 60.150002 122.9032
49.5499 60.150002 122.9106
49.632099 60.150002 122.9054
50.643051 60.150002 122.91265
50.7672 60.150002 122.9016
50.848 60.150002 122.9027
50.928699 60.150002 122.9038
48.7383 60.25 122.9188
49.226898 60.25 122.9063
49.307598 60.25 122.9074
49.752449 60.25 122.9102
49.875801 60.25 122.9023
50.684898 60.349998 122.9069
50.7672 60.349998 122.9016
49.4706 60.450001 122.9032
49.5499 60.450001 122.9106
49.632099 60.450001 122.9054
50.0373 60.450001 122.9045
50.118099 60.450001 122.9056
50.360401 60.450001 122.9088
50.441101 60.450001 122.9099
50.5219 60.450001 122.911
50.8465 60.450001 122.909
50.928699 60.450001 122.9038
48.654701 60.575001 122.9304
49.388401 60.575001 122.9085
49.467701 60.575001 122.9159
49.5499 60.575001 122.9106
50.035801 60.575001 122.9108
50.118099 60.575001 122.9056
50.281101 60.575001 122.9014
50.360401 60.575001 122.9088
50.438202 60.575001 122.9226
50.520401 60.575001 122.9174
51.334202 60.575001 122.9029
49.223999 60.674999 122.919
49.348 60.674999 122.9079
49.4706 60.674999 122.9032
49.632099 60.674999 122.9054
49.712799 60.674999 122.9065
49.874298 60.674999 122.9086
49.953602 60.674999 122.9161
50.035801 60.674999 122.9108
51.334202 60.674999 122.9029
51.453148 60.674999 122.9141
51.658901 60.674999 122.901
49.144699 60.799999 122.9115
49.226898 60.799999 122.9063
49.309101 60.799999 122.901
49.4706 60.799999 122.9032
49.5499 60.799999 122.9106
49.6306 60.799999 122.9117
49.754646 60.799999 122.90065
49.875801 60.799999 122.9023
49.955101 60.799999 122.9097
50.0373 60.799999 122.9045
50.279598 60.799999 122.9078
50.361801 60.799999 122.9025
51.658901 60.799999 122.901
49.875801 60.900002 122.9023
49.955101 60.900002 122.9097
50.034401 60.900002 122.9172
50.1166 60.900002 122.9119
50.200298 60.900002 122.9003
50.361801 60.900002 122.9025
50.7672 60.900002 122.9016
50.848 60.900002 122.9027
51.169601 60.900002 122.9134
51.2519 60.900002 122.9082
51.7397 60.900002 122.9021
51.818901 60.900002 122.9095
49.309101 61 122.901
49.5513 61 122.9043
49.632099 61 122.9054
49.752499 61 122.9102
49.874298 61 122.9086
49.956501 61 122.9034
50.158447 61 122.90615
50.4426 61 122.9036
50.523399 61 122.9047
50.686401 61 122.9005
50.765701 61 122.908
50.523399 61.125 122.9047
51.045403 61.125 122.92445
51.169601 61.125 122.9134
50.360401 61.25 122.9088
50.4352 61.25 122.9352
50.517502 61.25 122.93
50.765701 61.25 122.908
50.843498 61.25 122.9217
50.927299 61.25 122.9101
51.657299 61.25 122.9073
49.348 61.375 122.90795
49.4706 61.375 122.9032
49.632099 61.375 122.9054
49.751049 61.375 122.9165
49.872898 61.375 122.915
49.956501 61.375 122.9034
50.0373 61.375 122.9045
50.118099 61.375 122.9056
50.200298 61.375 122.9003
51.253399 61.375 122.9018
49.228298 61.474998 122.9
49.5513 61.474998 122.9043
49.753948 61.474998 122.90385
49.874298 61.474998 122.9086
51.658901 61.474998 122.901
51.7397 61.474998 122.9021
51.817402 61.474998 122.9158
50.035801 61.599998 122.9108
50.118099 61.599998 122.9056
50.7672 61.599998 122.9016
51.1726 61.599998 122.9008
51.455399 61.599998 122.90455
49.389801 61.724998 122.9021
49.4706 61.724998 122.9032
49.712799 61.724998 122.9065
51.575001 61.724998 122.9125
51.657299 61.724998 122.9073
49.753948 61.849998 122.90385
49.875801 61.849998 122.9023
50.8465 61.849998 122.909
50.927299 61.849998 122.9101
49.0583 61.950001 122.9358
49.875801 61.950001 122.9023
49.955101 61.950001 122.9097
50.361801 61.950001 122.9025
50.4426 61.950001 122.9036
50.644501 61.950001 122.90635
50.7672 61.950001 122.9016
49.632099 62.075001 122.9054
49.753899 62.075001 122.90385
49.875801 62.075001 122.9023
49.956501 62.075001 122.9034
50.2407 62.075001 122.90085
50.684898 62.075001 122.9069
50.7672 62.075001 122.9016
51.415001 62.075001 122.904
50.0373 62.200001 122.9045
50.2407 62.200001 122.90085
50.643799 62.200001 122.9095
50.7672 62.200001 122.9016
51.494301 62.200001 122.9115
51.573502 62.200001 122.9189
51.657299 62.200001 122.9073
49.752449 62.325001 122.9102
49.875801 62.325001 122.9023
50.200298 62.325001 122.9003
51.171101 62.325001 122.9071
51.2519 62.325001 122.9082
51.334202 62.325001 122.9029
51.818901 62.325001 122.9095
50.523399 62.450001 122.9047
50.604099 62.450001 122.9058
51.250401 62.450001 122.9145
51.3297 62.450001 122.9219
51.453899 62.450001 122.9109
49.5513 62.575001 122.9043
49.632099 62.575001 122.9054
50.200298 62.575001 122.9003
51.1726 62.575001 122.9008
49.632099 62.700001 122.9054
49.753197 62.700001 122.907
49.956501 62.700001 122.9034
50.686401 62.700001 122.9005
49.953602 62.799999 122.9161
50.032902 62.799999 122.9235
50.156952 62.799999 122.91245
50.281101 62.799999 122.9014
50.361801 62.799999 122.9025
51.415001 62.799999 122.904
50.0373 62.924999 122.9045
50.118099 62.924999 122.9056
50.200298 62.924999 122.9003
50.928699 62.924999 122.9038
51.047649 62.924999 122.91495
51.1726 62.924999 122.9008
50.118099 63.049999 122.9056
50.200298 63.049999 122.9003
50.686401 63.049999 122.9005
50.7672 63.049999 122.9016
50.239948 63.174999 122.90405
50.361801 63.174999 122.9025
50.4426 63.174999 122.9036
50.523399 63.174999 122.9047
50.0373 63.299999 122.9045
50.644501 63.299999 122.90635
50.7672 63.299999 122.9016
50.8465 63.299999 122.909
50.924301 63.299999 122.9228
51.046951 63.299999 122.9181
51.171101 63.299999 122.9071
51.2519 63.299999 122.9082
51.334202 63.299999 122.9029
51.7397 63.299999 122.9021
51.8204 63.299999 122.9032
50.5219 63.424999 122.911
50.6423 63.424999 122.9158
50.7672 63.424999 122.9016
49.956501 63.549999 122.9034
50.035801 63.549999 122.9108
50.441101 63.549999 122.9099
50.520401 63.549999 122.9174
50.64455 63.549999 122.9063
50.7672 63.549999 122.9016
50.848 63.549999 122.9027
51.171101 63.549999 122.9071
51.2519 63.549999 122.9082
51.332699 63.549999 122.9093
51.413502 63.549999 122.9104
50.4426 63.674999 122.9036
50.523399 63.674999 122.9047
51.1726 63.674999 122.9008
51.253399 63.674999 122.9018
50.7672 63.799999 122.9016
50.8465 63.799999 122.909
50.927299 63.799999 122.9101
51.049149 63.799999 122.9086
49.875801 63.924999 122.9023
49.956501 63.924999 122.9034
50.644501 63.924999 122.90635
50.762699 63.924999 122.9206
50.841999 63.924999 122.928
50.9258 63.924999 122.9165
51.009499 63.924999 122.9049
51.334202 63.924999 122.9029
50.118099 64.050003 122.9056
50.200298 64.050003 122.9003
51.4958 64.175003 122.9051
49.956501 64.300003 122.9034
50.357399 64.300003 122.9215
50.4338 64.300003 122.9416
50.517502 64.300003 122.93
50.158447 64.400002 122.90615
51.250401 64.400002 122.9145
51.332699 64.400002 122.9093
50.200298 64.525002 122.9003
50.686401 64.525002 122.9005
50.200298 64.650002 122.9003
51.1726 64.650002 122.9008
50.239948 64.900002 122.90405
50.360401 64.900002 122.9088
50.643051 64.900002 122.91265
50.765701 64.900002 122.908
50.848 64.900002 122.9027
50.928699 64.900002 122.9038
51.049149 64.900002 122.9086
51.169601 64.900002 122.9134
51.658901 64.900002 122.901
51.738098 64.900002 122.9084
50.643051 65.025002 122.91265
50.7672 65.025002 122.9016
51.3312 65.150002 122.9156
51.413502 65.150002 122.9104
50.604099 65.275002 122.9058
50.845001 65.275002 122.9154
50.922798 65.275002 122.9291
51.044701 65.275002 122.9276
51.1726 65.275002 122.9008
50.64455 65.400002 122.9063
50.686401 65.525002 122.9005
51.818901 65.525002 122.9095
50.523399 65.650002 122.9047
50.64455 65.650002 122.9063
50.765701 65.650002 122.908
51.455399 65.650002 122.90455
51.576599 65.650002 122.9062
51.657299 65.650002 122.9073
50.441101 65.775002 122.9099
50.520401 65.775002 122.9174
50.6012 65.775002 122.9184
50.928699 65.775002 122.9038
51.171101 65.775002 122.9071
51.250401 65.775002 122.9145
50.683399 65.900002 122.9132
50.762699 65.900002 122.9206
50.845001 65.900002 122.9154
50.927299 65.900002 122.9101
51.415001 65.900002 122.904
51.818901 65.900002 122.9095
50.7672 66.050003 122.9016
50.848 66.050003 122.9027
51.658901 66.050003 122.901
51.738098 66.050003 122.9084
51.8204 66.050003 122.9032
50.7672 66.175003 122.9016
50.848 66.175003 122.9027
51.8204 66.175003 122.9032
50.523399 66.449997 122.9047
50.604099 66.449997 122.9058
51.4958 66.449997 122.9051
50.928699 66.849998 122.9038
51.090302 67 122.906
51.169601 67 122.9134
51.2519 67 122.9082
51.332699 67 122.9093
51.7397 67 122.9021
51.171101 67.125 122.9071
51.658901 67.125 122.901
50.764198 67.275002 122.9143
50.8465 67.275002 122.909
51.658901 67.275002 122.901
50.686401 67.425003 122.9005
50.765701 67.425003 122.908
50.843498 67.425003 122.9217
50.9258 67.425003 122.9165
51.454651 67.425003 122.90775
50.848 67.574997 122.9027
50.927299 67.574997 122.9101
51.657299 67.574997 122.9073
51.7397 67.574997 122.9021
51.046898 67.724998 122.91815
51.169601 67.724998 122.9134
51.253399 67.724998 122.9018
51.048401 67.875 122.91175
51.171101 67.875 122.9071
51.253399 67.875 122.9018
51.334202 67.875 122.9029
50.8465 68.025002 122.909
50.9258 68.025002 122.9165
51.047649 68.025002 122.91495
51.169601 68.025002 122.9134
51.455399 68.175003 122.90455
51.1726 68.324997 122.9008
51.7397 68.324997 122.9021
51.658901 69.050003 122.901
51.7397 69.050003 122.9021
51.332699 69.349998 122.9093
51.453148 69.349998 122.9141
51.817402 70.050003 122.9158
51.6973 49.650002 123.0792
51.787102 49.650002 123.0424
51.6166 49.75 123.0781
51.748299 49.75 123.0355
51.540401 49.849998 123.0581
51.6287 49.849998 123.0275
51.713902 49.849998 123.0097
51.4566 49.950001 123.0696
51.544899 49.950001 123.0391
51.630199 49.950001 123.0212
51.7155 49.950001 123.0033
51.298199 50.049999 123.0548
51.386398 50.049999 123.0243
51.254852 50.150002 123.06689
51.387901 50.150002 123.0179
51.135201 50.25 123.0589
51.218899 50.25 123.0474
51.304199 50.25 123.0295
51.057499 50.375 123.0452
51.145699 50.375 123.0147
50.891602 50.474998 123.062
50.979698 50.474998 123.0315
51.0634 50.474998 123.0199
51.148701 50.474998 123.002
50.893002 50.599998 123.0557
50.9827 50.599998 123.0188
50.7346 50.700001 123.0408
50.818298 50.700001 123.0293
50.9431 50.700001 123.01511
50.650902 50.825001 123.0524
50.738998 50.825001 123.0219
50.8242 50.825001 123.004
50.573101 50.950001 123.0387
50.659801 50.950001 123.0145
50.7435 50.950001 123.0029
50.4953 51.049999 123.0249
50.582001 51.049999 123.0007
50.45055 51.174999 123.0433
50.577499 51.174999 123.0197
50.3265 51.275002 123.0544
50.4146 51.275002 123.0238
50.248798 51.400002 123.0406
50.3368 51.400002 123.0101
50.247299 51.5 123.0469
50.338299 51.5 123.0038
49.9949 51.625 123.0879
50.090302 51.625 123.0258
50.1768 51.625 123.0016
50.011002 51.75 123.0184
49.830601 51.849998 123.0984
49.928799 51.849998 123.0236
49.8466 51.950001 123.0289
49.760101 52.075001 123.0531
49.848099 52.075001 123.0225
49.682301 52.174999 123.0393
49.771801 52.174999 123.0025
49.600201 52.299999 123.0446
49.4258 52.400002 123.0993
49.520901 52.400002 123.0372
49.607399 52.400002 123.0129
49.355202 52.5 123.0539
49.431599 52.5 123.074
49.273102 52.625 123.0592
49.3596 52.625 123.035
49.447498 52.625 123.0045
49.2803 52.724998 123.0276
49.365299 52.724998 123.0097
49.154251 52.825001 123.0481
49.2817 52.825001 123.0213
49.147049 52.950001 123.07965
49.277401 52.950001 123.0402
49.108898 53.049999 123.0697
49.202499 53.049999 123.0138
49.1189 53.150002 123.0254
49.205399 53.150002 123.0012
49.028198 53.25 123.0686
49.121799 53.25 123.0128
48.9533 53.375 123.0422
49.0425 53.375 123.0054
48.861198 53.474998 123.0917
48.9576 53.474998 123.0232
48.7495 53.575001 123.049
48.863998 53.575001 123.0791
48.959 53.575001 123.0169
48.7523 53.700001 123.03635
48.6278 53.799999 123.0505
48.7127 53.799999 123.0326
48.5499 53.924999 123.0368
48.6306 53.924999 123.0379
48.718399 53.924999 123.0074
48.632 54.025002 123.0316
48.718399 54.025002 123.0074
48.467899 54.125 123.0421
48.5499 54.125 123.0368
48.637699 54.125 123.0063
48.470699 54.25 123.0294
48.387199 54.375 123.041
48.4608 54.375 123.0737
48.384399 54.474998 123.0536
48.3787 54.599998 123.0789
48.350449 54.700001 123.0246
48.227299 54.825001 123.0325
48.146702 54.950001 123.0314
48.227299 54.950001 123.0325
48.314999 54.950001 123.002
48.146702 55.049999 123.0314
48.066002 55.174999 123.0303
48.149502 55.174999 123.0188
48.067402 55.299999 123.024
47.985401 55.400002 123.0293
48.070202 55.400002 123.0114
47.978401 55.525002 123.0609
48.054798 55.525002 123.0809
47.944401 55.625 123.0319
47.9076 55.75 123.0156
47.9104 55.849998 123.0029
51.753899 49.450001 123.1814
51.6777 49.549999 123.1614
51.765999 49.549999 123.1309
51.428101 49.650002 123.1897
51.599998 49.650002 123.1477
51.434101 49.75 123.1644
51.520802 49.75 123.1403
51.2682 49.849998 123.1812
51.3549 49.849998 123.157
51.444599 49.849998 123.1202
51.2757 49.950001 123.1496
51.363899 49.950001 123.1191
51.199501 50.049999 123.1296
50.945499 50.150002 123.1768
51.1143 50.150002 123.1474
50.8633 50.25 123.182
50.9529 50.25 123.1452
51.042599 50.25 123.1084
50.866299 50.375 123.1694
50.9589 50.375 123.12
50.7915 50.474998 123.1431
50.543598 50.599998 123.1651
50.622799 50.599998 123.1725
