# .PCD v0.7 - Point Cloud Data file format
VERSION 0.7
FIELDS x y z
SIZE 4 4 4
TYPE F F F
COUNT 1 1 1
WIDTH 1682
HEIGHT 1
VIEWPOINT 0 0 0 1 0 0 0
POINTS 1682
DATA ascii
34.9575 63.299999 136.26224
35.0718 63.299999 136.2554
35.370998 63.299999 136.27071
35.446201 63.299999 136.2717
35.523499 63.299999 136.2616
35.6847 63.299999 136.2023
35.747398 63.299999 136.2758
35.860748 63.299999 136.2746
35.973202 63.299999 136.2789
36.050499 63.299999 136.2688
36.126801 63.299999 136.2643
36.236298 63.299999 136.28531
37.029701 63.299999 136.2823
37.148247 63.299999 136.25314
37.44355 63.299999 136.2908
37.556099 63.299999 136.2952
37.633499 63.299999 136.2851
37.747047 63.299999 136.28384
37.8596 63.299999 136.28819
37.946301 63.299999 136.228
38.059402 63.299999 136.22955
39.945351 63.299999 136.25604
40.0597 63.299999 136.25211
40.134102 63.299999 136.2587
40.24725 63.299999 136.26035
40.3605 63.299999 136.2619
40.438202 63.299999 136.2518
40.740299 63.299999 136.2561
40.85355 63.299999 136.25775
40.9669 63.299999 136.2594
41.0424 63.299999 136.2605
41.153999 63.299999 136.27045
41.265598 63.299999 136.2804
41.341202 63.299999 136.28149
35.068901 63.424999 136.27209
35.1432 63.424999 136.2787
35.257599 63.424999 136.27191
35.371899 63.424999 136.26511
35.4482 63.424999 136.2606
35.55965 63.424999 136.27045
35.6721 63.424999 136.2748
35.746399 63.424999 136.2814
35.858849 63.424999 136.28571
35.973202 63.424999 136.2789
36.0485 63.424999 136.27991
36.125801 63.424999 136.26981
36.236298 63.424999 136.28531
37.1437 63.424999 136.27824
37.340199 63.424999 136.2363
37.449699 63.424999 136.25735
37.558102 63.424999 136.284
37.633499 63.424999 136.2851
37.7491 63.424999 136.27271
37.858501 63.424999 136.29379
37.936001 63.424999 136.28371
38.0093 63.424999 136.2959
39.7556 63.424999 136.2589
39.833199 63.424999 136.2489
39.985298 63.424999 136.24541
40.058601 63.424999 136.2576
40.134102 63.424999 136.2587
40.24725 63.424999 136.26035
40.3605 63.424999 136.2619
40.436001 63.424999 136.263
40.550949 63.424999 136.25626
40.664799 63.424999 136.2551
40.740299 63.424999 136.2561
40.851898 63.424999 136.26614
41.154549 63.424999 136.2677
41.267899 63.424999 136.2693
41.356998 63.424999 136.2034
35.0728 63.549999 136.24989
35.147999 63.549999 136.2509
35.259003 63.549999 136.26355
35.370998 63.549999 136.27071
35.444302 63.549999 136.28281
35.557251 63.549999 136.28439
35.670101 63.549999 136.2859
35.747398 63.549999 136.2758
35.861252 63.549999 136.27179
35.974201 63.549999 136.2733
36.0495 63.549999 136.2744
36.161449 63.549999 136.28149
36.276402 63.549999 136.2719
37.150253 63.549999 136.24205
37.264801 63.549999 136.2352
37.3382 63.549999 136.24741
37.4543 63.549999 136.23225
37.569401 63.549999 136.2227
37.643799 63.549999 136.22929
37.746498 63.549999 136.28665
37.8606 63.549999 136.28259
37.936001 63.549999 136.28371
38.051651 63.549999 136.27135
39.8321 63.549999 136.25439
39.945351 63.549999 136.25604
40.057499 63.549999 136.2632
40.134102 63.549999 136.2587
40.248352 63.549999 136.25475
40.361599 63.549999 136.2563
40.437099 63.549999 136.2574
40.55035 63.549999 136.25905
40.6637 63.549999 136.2607
40.740299 63.549999 136.2561
40.85355 63.549999 136.25775
40.965698 63.549999 136.265
41.041302 63.549999 136.2661
41.155701 63.549999 136.26205
35.146099 63.674999 136.26199
35.257103 63.674999 136.2747
35.368999 63.674999 136.2818
35.446201 63.674999 136.2717
35.5606 63.674999 136.26489
35.674 63.674999 136.2636
35.749298 63.674999 136.26469
35.8256 63.674999 136.2601
35.940048 63.674999 136.2533
36.0495 63.674999 136.2744
36.161449 63.674999 136.28149
36.275398 63.674999 136.2775
37.266899 63.674999 136.22411
37.341202 63.674999 136.2307
37.44865 63.674999 136.26294
37.556099 63.674999 136.2952
37.631401 63.674999 136.2962
37.7099 63.674999 136.2805
37.861599 63.674999 136.2771
37.936001 63.674999 136.28371
38.04855 63.674999 136.28806
39.830002 63.674999 136.26559
39.944801 63.674999 136.25885
40.0597 63.674999 136.25211
40.136299 63.674999 136.2476
40.247803 63.674999 136.25754
40.361599 63.674999 136.2563
40.438202 63.674999 136.2518
40.513699 63.674999 136.2529
40.662498 63.674999 136.2662
40.738098 63.674999 136.2673
40.851349 63.674999 136.26895
40.9669 63.674999 136.2594
41.041302 63.674999 136.2661
41.154549 63.674999 136.26765
41.420101 63.674999 136.2659
41.508099 63.674999 136.2056
35.069901 63.799999 136.2666
35.144199 63.799999 136.27319
35.256149 63.799999 136.2803
35.369999 63.799999 136.2762
35.445301 63.799999 136.2773
35.559151 63.799999 136.27319
35.671101 63.799999 136.2803
35.745399 63.799999 136.2869
35.857849 63.799999 136.29129
35.971298 63.799999 136.28999
36.0485 63.799999 136.27991
36.126801 63.799999 136.2643
36.237747 63.799999 136.2769
37.2537 63.799999 136.29649
37.3423 63.799999 136.2251
37.45015 63.799999 136.25455
37.557098 63.799999 136.2896
37.6325 63.799999 136.2906
37.744949 63.799999 136.295
37.858501 63.799999 136.29379
37.933899 63.799999 136.2948
38.058399 63.799999 136.23515
39.833199 63.799999 136.2489
39.946999 63.799999 136.24771
40.058601 63.799999 136.2576
40.24725 63.799999 136.26035
40.361599 63.799999 136.2563
40.437099 63.799999 136.2574
40.55035 63.799999 136.25905
40.8913 63.799999 136.2583
40.967999 63.799999 136.2538
41.269001 63.799999 136.2637
41.345699 63.799999 136.2592
34.9575 63.924999 136.26224
35.069901 63.924999 136.2666
35.1423 63.924999 136.2843
35.255199 63.924999 136.28586
35.369999 63.924999 136.2762
35.445301 63.924999 136.2773
35.557701 63.924999 136.2816
35.670101 63.924999 136.2859
35.746399 63.924999 136.2814
35.861252 63.924999 136.27179
35.973202 63.924999 136.2789
36.0485 63.924999 136.27991
36.133701 63.924999 136.2253
36.244202 63.924999 136.24069
37.341202 63.924999 136.2307
37.447647 63.924999 136.26849
37.745499 63.924999 136.29225
37.8596 63.924999 136.28819
37.934898 63.924999 136.28931
38.056301 63.924999 136.24625
39.9076 63.924999 136.25549
40.058601 63.924999 136.2576
40.361599 63.924999 136.2563
40.436001 63.924999 136.263
40.549801 63.924999 136.26184
40.6637 63.924999 136.2607
40.7514 63.924999 136.20039
40.852451 63.924999 136.26335
40.965698 63.924999 136.265
41.041302 63.924999 136.2661
41.155701 63.924999 136.2621
41.269001 63.924999 136.2637
41.344601 63.924999 136.2648
34.957947 64.050003 136.25945
35.0718 64.050003 136.2554
35.145199 64.050003 136.26759
35.258049 64.050003 136.2691
35.372898 64.050003 136.25951
35.4482 64.050003 136.2606
35.558647 64.050003 136.276
35.6721 64.050003 136.2748
35.749298 64.050003 136.26469
35.8246 64.050003 136.2657
35.938553 64.050003 136.2617
36.062302 64.050003 136.2019
36.1367 64.050003 136.2085
36.244698 64.050003 136.23795
36.362701 64.050003 136.21159
37.4492 64.050003 136.26016
37.569401 64.050003 136.2227
37.6427 64.050003 136.23489
37.717098 64.050003 136.2415
37.8689 64.050003 136.2381
37.945301 64.050003 136.23351
38.019699 64.050003 136.2402
40.0597 64.050003 136.25211
40.132999 64.050003 136.2643
40.24725 64.050003 136.26035
40.3605 64.050003 136.2619
40.853001 64.050003 136.26056
40.965698 64.050003 136.265
41.0401 64.050003 136.27161
41.154549 64.050003 136.26765
41.267899 64.050003 136.2693
41.343399 64.050003 136.2704
41.420101 64.050003 136.2659
41.5397 64.050003 136.2368
34.993698 64.175003 136.2711
35.069901 64.175003 136.2666
35.144199 64.175003 136.27319
35.257103 64.175003 136.2747
35.369999 64.175003 136.2762
35.446201 64.175003 136.2717
35.55965 64.175003 136.27045
35.6721 64.175003 136.2748
35.746399 64.175003 136.2814
35.858849 64.175003 136.28571
35.972301 64.175003 136.2845
36.0476 64.175003 136.28551
36.123798 64.175003 136.28101
36.23925 64.175003 136.26855
36.3507 64.175003 136.2785
37.643799 64.175003 136.22929
37.752151 64.175003 136.256
37.870998 64.175003 136.2269
37.947399 64.175003 136.2224
38.057854 64.175003 136.2379
39.9459 64.175003 136.25325
40.060799 64.175003 136.24651
40.136299 64.175003 136.2476
40.247803 64.175003 136.25754
40.3605 64.175003 136.2619
40.438202 64.175003 136.2518
40.664799 64.175003 136.2551
40.739201 64.175003 136.2617
40.853001 64.175003 136.26056
40.9646 64.175003 136.27049
41.0401 64.175003 136.27161
41.153999 64.175003 136.27045
41.267899 64.175003 136.2693
41.343399 64.175003 136.2704
41.457901 64.175003 136.26645
34.994598 64.300003 136.26559
35.069901 64.300003 136.2666
35.145199 64.300003 136.26759
35.256653 64.300003 136.2775
35.369999 64.300003 136.2762
35.447201 64.300003 136.2661
35.55965 64.300003 136.27045
35.6731 64.300003 136.2692
35.747398 64.300003 136.2758
35.861748 64.300003 136.269
35.973202 64.300003 136.2789
36.0495 64.300003 136.2744
36.160999 64.300003 136.2843
36.3517 64.300003 136.2729
36.438 64.300003 136.21271
37.746002 64.300003 136.28946
37.858501 64.300003 136.29379
38.057899 64.300003 136.2379
39.9842 64.300003 136.25101
40.058601 64.300003 136.2576
40.132999 64.300003 136.2643
40.283901 64.300003 136.2664
40.3605 64.300003 136.2619
40.437099 64.300003 136.2574
40.5509 64.300003 136.25626
40.6637 64.300003 136.2607
40.740299 64.300003 136.2561
40.8913 64.300003 136.2583
40.9669 64.300003 136.2594
41.0424 64.300003 136.2605
41.154549 64.300003 136.26765
41.267899 64.300003 136.2693
41.344601 64.300003 136.2648
41.5471 64.300003 136.20055
35.066101 64.400002 136.2888
35.1423 64.400002 136.2843
35.258102 64.400002 136.26915
35.371899 64.400002 136.26511
35.446201 64.400002 136.2717
35.558151 64.400002 136.27881
35.6721 64.400002 136.2748
35.748299 64.400002 136.2702
35.859848 64.400002 136.28009
35.973202 64.400002 136.2789
36.0495 64.400002 136.2744
36.124802 64.400002 136.27541
36.238251 64.400002 136.27414
36.3507 64.400002 136.2785
36.46225 64.400002 136.28839
37.6325 64.400002 136.2906
37.782101 64.400002 136.29829
37.8699 64.400002 136.2325
37.946301 64.400002 136.228
38.056847 64.400002 136.24345
39.833199 64.400002 136.2489
39.946999 64.400002 136.24771
40.0597 64.400002 136.25211
40.135201 64.400002 136.2531
40.248352 64.400002 136.25475
40.361599 64.400002 136.2563
40.438202 64.400002 136.2518
40.55265 64.400002 136.24785
40.851898 64.400002 136.26614
40.9646 64.400002 136.27049
41.041302 64.400002 136.2661
41.269001 64.400002 136.2637
41.571201 64.400002 136.2681
34.992699 64.525002 136.2767
35.068901 64.525002 136.27209
35.145199 64.525002 136.26759
35.257553 64.525002 136.27191
35.369999 64.525002 136.2762
35.446201 64.525002 136.2717
35.558647 64.525002 136.276
35.6731 64.525002 136.2692
35.750301 64.525002 136.25909
35.862251 64.525002 136.2662
35.974201 64.525002 136.2733
36.050499 64.525002 136.2688
36.126801 64.525002 136.2643
36.238251 64.525002 136.27414
36.3498 64.525002 136.2841
36.426102 64.525002 136.2795
36.538551 64.525002 136.28391
37.557098 64.525002 136.2896
37.633499 64.525002 136.2851
37.706799 64.525002 136.2973
38.059448 64.525002 136.22955
38.173599 64.525002 136.22549
39.6446 64.525002 136.24615
39.757801 64.525002 136.2478
39.833199 64.525002 136.2489
39.947548 64.525002 136.2449
40.135201 64.525002 136.2531
40.248352 64.525002 136.25475
40.3605 64.525002 136.2619
40.436001 64.525002 136.263
40.550949 64.525002 136.25626
40.664799 64.525002 136.2551
40.739201 64.525002 136.2617
40.851898 64.525002 136.26614
40.965698 64.525002 136.265
41.041302 64.525002 136.2661
41.154549 64.525002 136.26765
41.267899 64.525002 136.2693
41.343399 64.525002 136.2704
35.069901 64.650002 136.2666
35.146099 64.650002 136.26199
35.257103 64.650002 136.2747
35.368999 64.650002 136.2818
35.445301 64.650002 136.2773
35.557701 64.650002 136.2816
35.670101 64.650002 136.2859
35.747398 64.650002 136.2758
35.858353 64.650002 136.2885
35.973202 64.650002 136.2789
36.051498 64.650002 136.2632
36.162949 64.650002 136.27315
36.275398 64.650002 136.2775
36.3517 64.650002 136.2729
36.426102 64.650002 136.2795
36.537552 64.650002 136.28944
37.6325 64.650002 136.2906
37.75375 64.650002 136.24765
37.867901 64.650002 136.24361
37.945301 64.650002 136.23351
38.054199 64.650002 136.2574
39.5303 64.650002 136.2502
39.643501 64.650002 136.25175
39.756699 64.650002 136.2534
39.8321 64.650002 136.25439
39.945351 64.650002 136.25604
40.058601 64.650002 136.2576
40.134102 64.650002 136.2587
40.24725 64.650002 136.26035
40.438202 64.650002 136.2518
40.55035 64.650002 136.25905
40.6637 64.650002 136.2607
40.739201 64.650002 136.2617
40.852451 64.650002 136.26335
40.965698 64.650002 136.265
41.041302 64.650002 136.2661
41.153999 64.650002 136.27045
41.267899 64.650002 136.2693
41.420101 64.650002 136.2659
41.5849 64.650002 136.2011
35.068001 64.775002 136.27769
35.144199 64.775002 136.27319
35.259048 64.775002 136.26355
35.369999 64.775002 136.2762
35.444302 64.775002 136.28281
35.558151 64.775002 136.27881
35.670101 64.775002 136.2859
35.748299 64.775002 136.2702
35.8246 64.775002 136.2657
35.938049 64.775002 136.26445
36.0495 64.775002 136.2744
36.125801 64.775002 136.26981
36.238747 64.775002 136.27139
36.3507 64.775002 136.2785
36.428001 64.775002 136.2684
36.547997 64.775002 136.23096
36.7323 64.775002 136.2558
36.84235 64.775002 136.27411
36.951302 64.775002 136.2979
37.641701 64.775002 136.24049
37.749649 64.775002 136.2699
37.858501 64.775002 136.29379
37.933899 64.775002 136.2948
38.0485 64.775002 136.28806
38.171501 64.775002 136.23669
38.474201 64.775002 136.23531
38.549599 64.775002 136.2364
38.625 64.775002 136.2374
38.738152 64.775002 136.23904
38.926701 64.775002 136.2417
39.039349 64.775002 136.24606
39.2285 64.775002 136.2459
39.342201 64.775002 136.24469
39.4548 64.775002 136.2491
39.5303 64.775002 136.2502
39.645649 64.775002 136.2406
39.757801 64.775002 136.2478
39.833199 64.775002 136.2489
39.946999 64.775002 136.24765
40.058601 64.775002 136.2576
40.134102 64.775002 136.2587
40.24725 64.775002 136.26035
40.361599 64.775002 136.2563
40.438202 64.775002 136.2518
40.5509 64.775002 136.25626
40.662498 64.775002 136.2662
40.738098 64.775002 136.2673
41.155647 64.775002 136.2621
41.2668 64.775002 136.2749
41.343399 64.775002 136.2704
41.420101 64.775002 136.2659
41.583698 64.775002 136.2067
35.066101 64.900002 136.2888
35.1423 64.900002 136.2843
35.257099 64.900002 136.2747
35.371899 64.900002 136.26511
35.446201 64.900002 136.2717
35.559151 64.900002 136.27319
35.671101 64.900002 136.2803
35.746399 64.900002 136.2814
35.860298 64.900002 136.27734
35.973202 64.900002 136.2789
36.0485 64.900002 136.27991
36.124802 64.900002 136.27541
36.244698 64.900002 136.2379
36.3517 64.900002 136.2729
36.46175 64.900002 136.2912
36.583698 64.900002 136.2426
36.661999 64.900002 136.2269
36.7384 64.900002 136.2224
36.84935 64.900002 136.23511
36.9594 64.900002 136.2534
37.027599 64.900002 136.2934
37.141151 64.900002 136.29214
37.2547 64.900002 136.291
37.330002 64.900002 136.29201
37.443001 64.900002 136.29355
37.568401 64.900002 136.2283
37.6427 64.900002 136.23489
37.746498 64.900002 136.28665
37.858501 64.900002 136.29379
37.933899 64.900002 136.2948
38.161098 64.900002 136.2924
38.238499 64.900002 136.2823
38.312901 64.900002 136.289
38.624001 64.900002 136.243
38.738701 64.900002 136.23624
38.849201 64.900002 136.2518
38.925701 64.900002 136.2473
39.002201 64.900002 136.24271
39.340599 64.900002 136.25305
39.4538 64.900002 136.2547
39.642948 64.900002 136.25455
39.757801 64.900002 136.2478
39.8321 64.900002 136.25439
39.945351 64.900002 136.25604
40.0597 64.900002 136.25211
40.136299 64.900002 136.2476
40.248901 64.900002 136.25195
40.361599 64.900002 136.2563
40.437099 64.900002 136.2574
40.5509 64.900002 136.25626
40.662498 64.900002 136.2662
40.738098 64.900002 136.2673
40.851898 64.900002 136.26614
40.965698 64.900002 136.265
41.041302 64.900002 136.2661
41.155151 64.900002 136.26486
35.146099 65.025002 136.26199
35.259003 65.025002 136.26355
35.368099 65.025002 136.2874
35.444302 65.025002 136.28281
35.56015 65.025002 136.2677
35.6721 65.025002 136.2748
35.746399 65.025002 136.2814
35.858849 65.025002 136.28571
35.970299 65.025002 136.29559
36.045601 65.025002 136.2966
36.1605 65.025002 136.28705
36.275398 65.025002 136.2775
36.3507 65.025002 136.2785
36.46175 65.025002 136.2912
36.574699 65.025002 136.29269
36.651001 65.025002 136.28819
36.733299 65.025002 136.2502
36.843349 65.025002 136.26855
36.952301 65.025002 136.2924
37.442001 65.025002 136.29915
37.556099 65.025002 136.2952
37.6325 65.025002 136.2906
37.706799 65.025002 136.2973
38.248001 65.025002 136.23219
38.323399 65.025002 136.2332
38.537998 65.025002 136.2977
38.774799 65.025002 136.2451
38.852402 65.025002 136.235
38.926701 65.025002 136.2417
39.038799 65.025002 136.24886
39.153 65.025002 136.2449
39.342201 65.025002 136.24475
39.529202 65.025002 136.2558
39.605801 65.025002 136.25121
39.756699 65.025002 136.2534
39.8311 65.025002 136.25999
39.944801 65.025002 136.25885
40.058601 65.025002 136.2576
40.134102 65.025002 136.2587
40.24725 65.025002 136.26035
40.361599 65.025002 136.2563
40.5881 65.025002 136.2596
40.6614 65.025002 136.2718
40.7369 65.025002 136.2729
40.851349 65.025002 136.26895
40.965698 65.025002 136.265
41.0424 65.025002 136.2605
41.155701 65.025002 136.2621
41.269001 65.025002 136.2637
41.496799 65.025002 136.2614
35.1432 65.150002 136.2787
35.257103 65.150002 136.2747
35.369999 65.150002 136.2762
35.447201 65.150002 136.2661
35.55965 65.150002 136.27045
35.6721 65.150002 136.2748
35.745399 65.150002 136.2869
35.818699 65.150002 136.2991
35.970299 65.150002 136.29559
36.0476 65.150002 136.28551
36.161449 65.150002 136.28149
36.274399 65.150002 136.283
36.3507 65.150002 136.2785
36.426998 65.150002 136.274
36.547501 65.150002 136.2337
36.66 65.150002 136.2381
36.735401 65.150002 136.23911
36.840851 65.150002 136.28246
37.488899 65.150002 136.2495
37.564301 65.150002 136.2506
37.631401 65.150002 136.2962
37.745499 65.150002 136.29221
37.8699 65.150002 136.2325
37.945301 65.150002 136.23351
38.0574 65.150002 136.24069
38.161098 65.150002 136.2924
38.235401 65.150002 136.299
38.472099 65.150002 136.24651
38.774799 65.150002 136.2451
38.850201 65.150002 136.2462
38.926701 65.150002 136.2417
39.0765 65.150002 136.2494
39.152 65.150002 136.2504
39.227402 65.150002 136.2515
39.341652 65.150002 136.2475
39.455898 65.150002 136.2435
39.531399 65.150002 136.2446
39.681198 65.150002 136.2523
39.756699 65.150002 136.2534
39.8311 65.150002 136.25999
39.9459 65.150002 136.25325
40.286098 65.150002 136.25529
40.361599 65.150002 136.2563
40.437099 65.150002 136.2574
40.55035 65.150002 136.25905
40.664799 65.150002 136.2551
40.740299 65.150002 136.2561
40.851898 65.150002 136.26614
40.9646 65.150002 136.27049
41.0401 65.150002 136.27161
41.117901 65.150002 136.2616
41.267899 65.150002 136.2693
41.3423 65.150002 136.276
41.457352 65.150002 136.26926
41.571201 65.150002 136.2681
41.6479 65.150002 136.2636
35.144199 65.275002 136.27319
35.258049 65.275002 136.2691
35.370998 65.275002 136.27071
35.445301 65.275002 136.2773
35.560101 65.275002 136.26765
35.6731 65.275002 136.2692
35.745399 65.275002 136.2869
35.857849 65.275002 136.29126
35.973202 65.275002 136.2789
36.0476 65.275002 136.28551
36.15905 65.275002 136.29541
36.272499 65.275002 136.2942
36.655998 65.275002 136.2603
36.729301 65.275002 136.27251
36.803699 65.275002 136.2791
37.479698 65.275002 136.2997
37.558102 65.275002 136.284
37.6325 65.275002 136.2906
37.857498 65.275002 136.2993
38.047001 65.275002 136.2964
38.162102 65.275002 136.2868
38.249001 65.275002 136.22659
38.323399 65.275002 136.2332
38.549599 65.275002 136.2364
38.625 65.275002 136.2374
39.038799 65.275002 136.24886
39.153 65.275002 136.2449
39.2285 65.275002 136.2459
39.303902 65.275002 136.24699
39.644051 65.275002 136.24896
39.757801 65.275002 136.2478
39.833199 65.275002 136.2489
39.945351 65.275002 136.25604
40.058601 65.275002 136.2576
40.135201 65.275002 136.2531
40.210602 65.275002 136.2542
40.5509 65.275002 136.25626
40.664799 65.275002 136.2551
40.854099 65.275002 136.255
40.9669 65.275002 136.2594
41.043499 65.275002 136.2549
41.4212 65.275002 136.2603
41.571201 65.275002 136.2681
41.6604 65.275002 136.20219
41.76585 65.275002 136.24289
35.257103 65.400002 136.2747
35.370998 65.400002 136.27071
35.447201 65.400002 136.2661
35.5616 65.400002 136.25931
35.674 65.400002 136.2636
35.747398 65.400002 136.2758
35.861298 65.400002 136.27174
35.975201 65.400002 136.2677
36.051498 65.400002 136.2632
36.125801 65.400002 136.26981
36.243248 65.400002 136.24631
36.347801 65.400002 136.2952
36.498402 65.400002 136.2973
36.576698 65.400002 136.2816
36.650002 65.400002 136.29379
37.479698 65.400002 136.2997
37.557098 65.400002 136.2896
37.633499 65.400002 136.2851
37.745453 65.400002 136.29221
37.857498 65.400002 136.2993
37.9412 65.400002 136.2558
38.058399 65.400002 136.23515
38.161098 65.400002 136.2924
39.077599 65.400002 136.2438
39.153 65.400002 136.2449
39.2285 65.400002 136.2459
39.342201 65.400002 136.24469
39.4548 65.400002 136.2491
39.532501 65.400002 136.239
39.645649 65.400002 136.2406
39.834301 65.400002 136.2433
39.908699 65.400002 136.24989
40.287201 65.400002 136.24969
40.361599 65.400002 136.2563
40.437099 65.400002 136.2574
40.551498 65.400002 136.25345
40.739201 65.400002 136.2617
40.853001 65.400002 136.26056
41.0424 65.400002 136.2605
41.117901 65.400002 136.2616
41.344601 65.400002 136.2648
41.457901 65.400002 136.26645
35.147099 65.525002 136.2565
35.260948 65.525002 136.25241
35.373901 65.525002 136.254
35.4482 65.525002 136.2606
35.56205 65.525002 136.2565
35.6731 65.525002 136.2692
35.746399 65.525002 136.2814
35.859802 65.525002 136.28015
35.974201 65.525002 136.2733
36.0495 65.525002 136.2744
36.160999 65.525002 136.2843
36.4231 65.525002 136.2962
37.479698 65.525002 136.2997
37.556099 65.525002 136.2952
37.783199 65.525002 136.29269
37.858501 65.525002 136.29379
38.170502 65.525002 136.24229
38.244801 65.525002 136.2489
38.35635 65.525002 136.25885
38.661148 65.525002 136.24634
38.774799 65.525002 136.2451
38.847099 65.525002 136.26289
39.153 65.525002 136.2449
39.227402 65.525002 136.2515
39.529202 65.525002 136.2558
39.642399 65.525002 136.25735
40.134102 65.525002 136.2587
40.2117 65.525002 136.2486
40.3638 65.525002 136.24519
40.438202 65.525002 136.2518
40.549252 65.525002 136.26465
40.664799 65.525002 136.2551
40.740299 65.525002 136.2561
40.85355 65.525002 136.25775
41.2701 65.525002 136.2581
41.345699 65.525002 136.2592
41.457901 65.525002 136.26645
41.571201 65.525002 136.2681
35.258049 65.650002 136.2691
35.368999 65.650002 136.2818
35.442402 65.650002 136.29401
35.557198 65.650002 136.28435
35.674 65.650002 136.2636
35.749298 65.650002 136.26469
35.860748 65.650002 136.2746
35.973202 65.650002 136.2789
36.0485 65.650002 136.27991
36.122799 65.650002 136.2865
37.328999 65.650002 136.29761
37.404301 65.650002 136.2986
38.0103 65.650002 136.2903
38.692001 65.650002 136.2831
39.7556 65.650002 136.2589
39.945351 65.650002 136.25604
40.058601 65.650002 136.2576
40.136299 65.650002 136.2476
40.248352 65.650002 136.25475
40.361599 65.650002 136.2563
40.437099 65.650002 136.2574
40.55035 65.650002 136.25905
40.6637 65.650002 136.2607
40.740299 65.650002 136.2561
40.85355 65.650002 136.25775
40.967999 65.650002 136.2538
41.0424 65.650002 136.2605
41.153999 65.650002 136.27045
41.267899 65.650002 136.2693
41.344601 65.650002 136.2648
35.2957 65.775002 136.26961
35.370998 65.775002 136.27071
35.446201 65.775002 136.2717
35.558651 65.775002 136.276
35.670101 65.775002 136.2859
35.7444 65.775002 136.2925
35.857349 65.775002 136.29405
35.973202 65.775002 136.2789
36.0476 65.775002 136.28551
36.164452 65.775002 136.2648
37.328999 65.775002 136.29761
37.444599 65.775002 136.28525
37.556099 65.775002 136.2952
37.631401 65.775002 136.2962
37.745499 65.775002 136.29221
37.858501 65.775002 136.29379
38.097099 65.775002 136.2301
38.162102 65.775002 136.2868
38.2365 65.775002 136.2935
38.360001 65.775002 136.23935
38.471001 65.775002 136.25211
38.547501 65.775002 136.2475
38.656898 65.775002 136.26865
40.248352 65.775002 136.25475
40.3605 65.775002 136.2619
40.436001 65.775002 136.263
40.549801 65.775002 136.26184
40.664799 65.775002 136.2551
40.739201 65.775002 136.2617
40.852451 65.775002 136.26335
40.965698 65.775002 136.265
41.193501 65.775002 136.2626
41.459 65.775002 136.26085
41.572399 65.775002 136.2625
35.255199 65.900002 136.28586
35.370998 65.900002 136.27071
35.447201 65.900002 136.2661
35.558701 65.900002 136.27606
35.674999 65.900002 136.2581
35.750301 65.900002 136.25909
35.8246 65.900002 136.2657
35.943951 65.900002 136.23105
36.061298 65.900002 136.2075
36.16 65.900002 136.28986
37.0266 65.900002 136.299
37.104 65.900002 136.28889
37.331001 65.900002 136.28641
37.447651 65.900002 136.26849
37.556099 65.900002 136.2952
37.633499 65.900002 136.2851
37.7491 65.900002 136.27271
37.865799 65.900002 136.25481
38.244801 65.900002 136.2489
38.354248 65.900002 136.26999
38.464699 65.900002 136.28551
40.136299 65.900002 136.2476
40.85355 65.900002 136.25775
41.0424 65.900002 136.2605
41.153999 65.900002 136.27045
41.495701 65.900002 136.267
41.571201 65.900002 136.2681
35.256599 66.050003 136.2775
35.370998 66.050003 136.27071
35.447201 66.050003 136.2661
35.5606 66.050003 136.26489
35.674999 66.050003 136.2581
35.759102 66.050003 136.20889
35.861748 66.050003 136.269
35.972301 66.050003 136.2845
36.0476 66.050003 136.28551
36.124802 66.050003 136.27541
36.237747 66.050003 136.27695
36.348801 66.050003 136.2896
36.841797 66.050003 136.2769
36.9543 66.050003 136.2812
37.029701 66.050003 136.2823
37.568401 66.050003 136.2283
37.643799 66.050003 136.22929
37.757351 66.050003 136.22815
37.8606 66.050003 136.28259
37.933899 66.050003 136.2948
38.243801 66.050003 136.2545
38.3255 66.050003 136.22211
38.4375 66.050003 136.2292
40.248352 66.050003 136.25475
40.361599 66.050003 136.2563
40.551498 66.050003 136.25345
40.664799 66.050003 136.2551
40.740299 66.050003 136.2561
40.854649 66.050003 136.2522
41.155098 66.050003 136.26489
41.267899 66.050003 136.2693
41.497898 66.050003 136.2558
35.2976 66.175003 136.2585
35.371899 66.175003 136.26511
35.446201 66.175003 136.2717
35.558151 66.175003 136.27881
35.670101 66.175003 136.2859
35.745399 66.175003 136.2869
35.860802 66.175003 136.27454
35.974201 66.175003 136.2733
36.0485 66.175003 136.27991
36.120899 66.175003 136.2977
36.648998 66.175003 136.2993
36.7253 66.175003 136.2948
36.844349 66.175003 136.26295
37.556099 66.175003 136.2952
37.75375 66.175003 136.24765
37.857498 66.175003 136.2993
38.084702 66.175003 136.29691
38.161098 66.175003 136.2924
38.245899 66.175003 136.2433
38.319199 66.175003 136.25549
40.247799 66.175003 136.25754
40.3605 66.175003 136.2619
40.436001 66.175003 136.263
40.550949 66.175003 136.25626
40.854099 66.175003 136.255
40.965698 66.175003 136.265
41.041302 66.175003 136.2661
41.155151 66.175003 136.26486
41.269001 66.175003 136.2637
41.344601 66.175003 136.2648
35.559151 66.300003 136.27319
35.669201 66.300003 136.2915
35.7435 66.300003 136.2981
35.857849 66.300003 136.29126
35.970299 66.300003 136.29559
36.045601 66.300003 136.2966
36.120899 66.300003 136.2977
36.348801 66.300003 136.2896
36.425098 66.300003 136.2851
36.539047 66.300003 136.2811
36.652 66.300003 136.28259
36.736401 66.300003 136.23351
36.801701 66.300003 136.2903
37.633499 66.300003 136.2851
37.750149 66.300003 136.26715
37.870998 66.300003 136.2269
37.934898 66.300003 136.28931
38.0093 66.300003 136.2959
40.285 66.300003 136.26089
40.361599 66.300003 136.2563
40.437099 66.300003 136.2574
40.8913 66.300003 136.2583
40.9669 66.300003 136.2594
41.0424 66.300003 136.2605
41.117901 66.300003 136.2616
41.495701 66.300003 136.267
41.797901 66.300003 136.2713
35.369999 66.449997 136.2762
35.446201 66.449997 136.2717
35.557251 66.449997 136.28439
35.671101 66.449997 136.2803
35.746399 66.449997 136.2814
35.859352 66.449997 136.2829
35.973202 66.449997 136.2789
36.0495 66.449997 136.2744
36.124802 66.449997 136.27541
36.23875 66.449997 136.27135
36.3517 66.449997 136.2729
36.426998 66.449997 136.274
36.538551 66.449997 136.28384
36.661999 66.449997 136.2269
36.736401 66.449997 136.23351
36.808701 66.449997 136.2513
38.170502 66.449997 136.24229
40.662498 66.449997 136.2662
40.739201 66.449997 136.2617
40.85355 66.449997 136.25775
40.965698 66.449997 136.265
41.041302 66.449997 136.2661
41.154549 66.449997 136.26765
41.6479 66.449997 136.2636
35.368099 66.574997 136.2874
35.443298 66.574997 136.28841
35.558701 66.574997 136.27606
35.674 66.574997 136.2636
35.748299 66.574997 136.2702
35.861748 66.574997 136.269
35.975201 66.574997 136.2677
36.0495 66.574997 136.2744
36.16 66.574997 136.28986
36.424099 66.574997 136.2907
36.539051 66.574997 136.28105
36.653 66.574997 136.2771
36.728298 66.574997 136.27811
36.840347 66.574997 136.2852
37.943199 66.574997 136.24471
38.927799 66.574997 136.2361
39.003201 66.574997 136.2372
40.664799 66.574997 136.2551
40.85355 66.574997 136.25775
40.9669 66.574997 136.2594
41.0424 66.574997 136.2605
41.154549 66.574997 136.26765
41.267899 66.574997 136.2693
41.344601 66.574997 136.2648
41.457901 66.574997 136.26645
41.571201 66.574997 136.2681
35.445301 66.699997 136.2773
35.565948 66.699997 136.23425
35.6731 66.699997 136.2692
35.749298 66.699997 136.26469
35.860748 66.699997 136.2746
35.970299 66.699997 136.29559
36.15905 66.699997 136.29541
36.284401 66.699997 136.22729
36.360699 66.699997 136.22279
36.462753 66.699997 136.2856
36.584702 66.699997 136.237
36.653 66.699997 136.2771
36.726299 66.699997 136.2892
37.75375 66.699997 136.24759
37.865799 66.699997 136.25481
38.851299 66.699997 136.2406
38.926701 66.699997 136.2417
39.040951 66.699997 136.2377
39.143398 66.699997 136.295
39.299599 66.699997 136.2693
39.379398 66.699997 136.248
40.6637 66.699997 136.2607
41.0424 66.699997 136.2605
41.154549 66.699997 136.26765
41.269001 66.699997 136.2637
35.444302 66.849998 136.28281
35.556252 66.849998 136.28995
35.671101 66.849998 136.2803
35.747398 66.849998 136.2758
35.860802 66.849998 136.27454
35.975201 66.849998 136.2677
36.061298 66.849998 136.2075
36.1278 66.849998 136.2587
36.23875 66.849998 136.27135
36.3517 66.849998 136.2729
36.426102 66.849998 136.2795
36.538048 66.849998 136.28665
36.650002 66.849998 136.29379
36.7253 66.849998 136.2948
36.839348 66.849998 136.2908
37.782101 66.849998 136.29829
37.8596 66.849998 136.28819
37.944302 66.849998 136.23911
38.019699 66.849998 136.2402
39.153 66.849998 136.2449
39.2285 66.849998 136.2459
39.341652 66.849998 136.2475
40.740299 66.849998 136.2561
40.85355 66.849998 136.25775
40.9669 66.849998 136.2594
41.0424 66.849998 136.2605
41.118999 66.849998 136.256
41.457298 66.849998 136.2692
41.571201 66.849998 136.2681
35.557251 67 136.28439
35.670101 67 136.2859
35.746399 67 136.2814
35.861252 67 136.27179
35.972301 67 136.2845
36.0466 67 136.29111
36.16095 67 136.28424
36.275398 67 136.2775
36.3507 67 136.2785
36.425098 67 136.2851
36.538551 67 136.28384
36.652 67 136.28259
36.727299 67 136.28371
36.839348 67 136.2908
36.952301 67 136.2924
37.9412 67 136.2558
39.303902 67 136.24699
40.741402 67 136.2506
40.853001 67 136.26056
40.9669 67 136.2594
41.043499 67 136.2549
41.155701 67 136.2621
35.55965 67.125 136.27045
35.6731 67.125 136.2692
35.747398 67.125 136.2758
35.860298 67.125 136.27734
35.974201 67.125 136.2733
36.0495 67.125 136.2744
36.124802 67.125 136.27541
36.238251 67.125 136.27414
36.3498 67.125 136.2841
36.4231 67.125 136.2962
36.875999 67.125 136.29691
36.952301 67.125 136.2924
37.0266 67.125 136.299
37.943199 67.125 136.24471
38.626099 67.125 136.2319
38.738152 67.125 136.23904
38.850201 67.125 136.2462
38.926701 67.125 136.2417
39.040951 67.125 136.2377
39.154099 67.125 136.2393
39.2285 67.125 136.2459
39.341652 67.125 136.2475
40.664799 67.125 136.2551
40.890202 67.125 136.2639
40.965698 67.125 136.265
41.0424 67.125 136.2605
41.117901 67.125 136.2616
41.345699 67.125 136.2592
41.799099 67.125 136.2657
41.873501 67.125 136.2724
41.964001 67.125 136.201
35.669201 67.275002 136.2915
35.746399 67.275002 136.2814
35.860802 67.275002 136.27454
35.975201 67.275002 136.2677
36.062302 67.275002 136.2019
36.1278 67.275002 136.2587
36.243198 67.275002 136.24631
36.347801 67.275002 136.2952
36.4231 67.275002 136.2962
36.575699 67.275002 136.2872
36.653 67.275002 136.2771
36.726299 67.275002 136.2892
38.739201 67.275002 136.23344
38.926701 67.275002 136.2417
39.153 67.275002 136.2449
39.2285 67.275002 136.2459
39.341652 67.275002 136.2475
40.890202 67.275002 136.2639
40.9646 67.275002 136.27049
41.041302 67.275002 136.2661
41.15625 67.275002 136.25931
41.269001 67.275002 136.2637
41.343399 67.275002 136.2704
41.418999 67.275002 136.2715
35.559151 67.425003 136.27325
35.671101 67.425003 136.2803
35.7444 67.425003 136.2925
35.857849 67.425003 136.29126
35.971298 67.425003 136.28999
36.0476 67.425003 136.28551
36.160999 67.425003 136.2843
36.273499 67.425003 136.2886
36.3498 67.425003 136.2841
36.46175 67.425003 136.2912
36.574699 67.425003 136.29269
36.651001 67.425003 136.28819
36.728298 67.425003 136.27811
36.840851 67.425003 136.28244
36.951302 67.425003 136.2979
38.739201 67.425003 136.23344
38.852402 67.425003 136.235
39.153 67.425003 136.2449
39.230598 67.425003 136.2348
40.523701 67.425003 136.2027
40.6637 67.425003 136.2607
40.739201 67.425003 136.2617
40.852451 67.425003 136.26335
40.965698 67.425003 136.265
41.041302 67.425003 136.2661
41.154549 67.425003 136.26765
41.267899 67.425003 136.2693
41.343399 67.425003 136.2704
41.420101 67.425003 136.2659
41.6479 67.425003 136.2636
41.7584 67.425003 136.27914
41.871201 67.425003 136.2836
35.595798 67.574997 136.2793
35.6721 67.574997 136.2748
35.760101 67.574997 136.2034
35.896999 67.574997 136.2834
36.045601 67.574997 136.2966
36.15955 67.574997 136.2926
36.274399 67.574997 136.283
36.3507 67.574997 136.2785
36.424099 67.574997 136.2907
36.648998 67.574997 136.2993
36.726299 67.574997 136.2892
36.839348 67.574997 136.2908
36.952301 67.574997 136.2924
38.851299 67.574997 136.2406
39.078701 67.574997 136.2382
39.154099 67.574997 136.2393
39.2285 67.574997 136.2459
39.341652 67.574997 136.2475
40.247799 67.574997 136.25754
40.3605 67.574997 136.2619
40.437099 67.574997 136.2574
40.589298 67.574997 136.254
40.664799 67.574997 136.2551
40.740299 67.574997 136.2561
40.85355 67.574997 136.25775
40.9669 67.574997 136.2594
41.041302 67.574997 136.2661
41.155151 67.574997 136.26486
41.950199 67.574997 136.2679
35.7435 67.724998 136.2981
35.896 67.724998 136.289
35.973202 67.724998 136.2789
36.0485 67.724998 136.27991
36.1605 67.724998 136.28705
36.276402 67.724998 136.2719
36.3507 67.724998 136.2785
36.426102 67.724998 136.2795
36.538551 67.724998 136.28391
36.652 67.724998 136.28259
36.727299 67.724998 136.28371
36.838299 67.724998 136.2964
36.951302 67.724998 136.2979
38.359501 67.724998 136.24216
38.474201 67.724998 136.23531
38.539101 67.724998 136.2921
38.661701 67.724998 136.24355
39.2285 67.724998 136.2459
39.341103 67.724998 136.25031
40.286098 67.724998 136.25529
40.3605 67.724998 136.2619
40.549801 67.724998 136.26184
40.85355 67.724998 136.25775
40.967999 67.724998 136.2538
41.0424 67.724998 136.2605
41.155098 67.724998 136.26489
41.2668 67.724998 136.2749
35.670101 67.875 136.2859
35.7444 67.875 136.2925
35.858849 67.875 136.28571
35.973202 67.875 136.2789
36.0495 67.875 136.2744
36.161499 67.875 136.28149
36.2715 67.875 136.2997
36.347801 67.875 136.2952
36.46175 67.875 136.2912
36.576698 67.875 136.2816
36.651001 67.875 136.28819
36.726299 67.875 136.2892
36.838852 67.875 136.29361
36.952301 67.875 136.2924
38.248001 67.875 136.23219
38.323399 67.875 136.2332
38.694099 67.875 136.2719
38.768501 67.875 136.27859
38.992599 67.875 136.29289
39.066898 67.875 136.2995
39.153 67.875 136.2449
39.2285 67.875 136.2459
39.302898 67.875 136.2525
39.8321 67.875 136.25439
39.945351 67.875 136.25604
40.058601 67.875 136.2576
40.135201 67.875 136.2531
40.589298 67.875 136.254
40.664799 67.875 136.2551
40.853001 67.875 136.26056
40.9646 67.875 136.27049
41.356998 67.875 136.2034
41.4314 67.875 136.2101
41.545952 67.875 136.20615
41.6604 67.875 136.20219
41.736 67.875 136.20329
41.810501 67.875 136.2099
35.670101 68.025002 136.2859
35.7444 68.025002 136.2925
35.818699 68.025002 136.2991
35.970299 68.025002 136.29559
36.0466 68.025002 136.29111
36.15955 68.025002 136.2926
36.273499 68.025002 136.2886
36.348801 68.025002 136.2896
36.575699 68.025002 136.2872
36.651001 68.025002 136.28819
36.876999 68.025002 136.29131
36.9543 68.025002 136.2812
37.038799 68.025002 136.2321
38.0961 68.025002 136.2356
38.171501 68.025002 136.23669
38.397701 68.025002 136.2399
38.547501 68.025002 136.2475
38.626099 68.025002 136.2319
38.737099 68.025002 136.2446
39.040951 68.025002 136.2377
39.153 68.025002 136.2449
39.2285 68.025002 136.2459
39.341652 68.025002 136.2475
39.4548 68.025002 136.2491
39.5303 68.025002 136.2502
39.6068 68.025002 136.2457
39.983101 68.025002 136.25661
40.058601 68.025002 136.2576
40.135201 68.025002 136.2531
40.438202 68.025002 136.2518
40.662498 68.025002 136.2662
40.739201 68.025002 136.2617
40.85355 68.025002 136.25775
40.965698 68.025002 136.265
41.0424 68.025002 136.2605
41.267899 68.025002 136.2693
41.34 68.025002 136.28709
41.5849 68.025002 136.2011
35.670101 68.175003 136.2859
35.7444 68.175003 136.2925
35.85685 68.175003 136.29684
35.971298 68.175003 136.28999
36.0466 68.175003 136.29111
36.16095 68.175003 136.28424
36.274399 68.175003 136.283
36.3498 68.175003 136.2841
36.425098 68.175003 136.2851
36.538048 68.175003 136.28665
36.650002 68.175003 136.29379
37.0266 68.175003 136.299
37.140648 68.175003 136.29495
38.2365 68.175003 136.2935
38.851299 68.175003 136.2406
38.9161 68.175003 136.29739
39.226299 68.175003 136.2571
39.4538 68.175003 136.2547
39.5303 68.175003 136.2502
39.681198 68.175003 136.2523
39.756699 68.175003 136.2534
39.8321 68.175003 136.25439
39.9459 68.175003 136.25325
40.0597 68.175003 136.25211
40.135201 68.175003 136.2531
40.247799 68.175003 136.25754
40.361599 68.175003 136.2563
40.437099 68.175003 136.2574
40.511501 68.175003 136.2641
40.667 68.175003 136.2439
40.741402 68.175003 136.2506
40.8158 68.175003 136.2572
40.967999 68.175003 136.2538
41.044601 68.175003 136.2493
41.156799 68.175003 136.25656
35.747398 68.324997 136.2758
35.861748 68.324997 136.269
35.972301 68.324997 136.2845
36.0485 68.324997 136.27991
36.1605 68.324997 136.28705
36.498402 68.324997 136.2973
36.574699 68.324997 136.29269
36.648998 68.324997 136.2993
36.726299 68.324997 136.2892
36.838852 68.324997 136.29361
36.951302 68.324997 136.2979
37.027599 68.324997 136.2934
37.142151 68.324997 136.28659
37.2537 68.324997 136.29649
38.084702 68.324997 136.29691
38.16 68.324997 136.298
38.851299 68.324997 136.2406
38.925701 68.324997 136.2473
39.077599 68.324997 136.2438
39.153 68.324997 136.2449
39.8321 68.324997 136.25439
39.944252 68.324997 136.2616
40.057499 68.324997 136.2632
40.130798 68.324997 136.27541
40.245651 68.324997 136.26865
40.358299 68.324997 136.2731
40.436001 68.324997 136.263
40.517101 68.324997 136.23621
35.7444 68.474998 136.2925
35.858353 68.474998 136.2885
35.972301 68.474998 136.2845
36.0495 68.474998 136.2744
36.1367 68.474998 136.2085
36.242752 68.474998 136.2491
36.348801 68.474998 136.2896
36.425098 68.474998 136.2851
36.538048 68.474998 136.28665
36.652 68.474998 136.28259
36.726299 68.474998 136.2892
36.838799 68.474998 136.29361
36.9533 68.474998 136.2868
37.028599 68.474998 136.2878
37.556099 68.474998 136.2952
37.631401 68.474998 136.2962
38.2365 68.474998 136.2935
38.323399 68.474998 136.2332
38.9538 68.474998 136.29794
39.066898 68.474998 136.2995
39.678001 68.474998 136.269
39.753399 68.474998 136.2701
39.830002 68.474998 136.26559
39.949699 68.474998 136.2337
40.0695 68.474998 136.2019
35.820702 68.625 136.28799
35.941002 68.625 136.24774
36.0476 68.625 136.28551
36.16 68.625 136.28979
36.273499 68.625 136.2886
36.3498 68.625 136.2841
36.426102 68.625 136.2795
36.538048 68.625 136.28665
36.648998 68.625 136.2993
36.840351 68.625 136.28525
36.9543 68.625 136.2812
37.027599 68.625 136.2934
37.480701 68.625 136.2941
39.0755 68.625 136.2549
39.153 68.625 136.2449
39.2285 68.625 136.2459
39.307201 68.625 136.2303
35.818699 68.75 136.2991
36.045601 68.75 136.2966
36.2715 68.75 136.2997
36.348801 68.75 136.2896
36.425098 68.75 136.2851
36.539551 68.75 136.27829
36.650002 68.75 136.29379
36.726299 68.75 136.2892
36.839851 68.75 136.28799
37.141151 68.75 136.29214
37.2547 68.75 136.291
37.328999 68.75 136.29761
37.443001 68.75 136.29355
37.557098 68.75 136.2896
38.3223 68.75 136.2388
38.437553 68.75 136.2292
38.5485 68.75 136.242
38.627102 68.75 136.2263
35.819698 68.900002 136.2935
36.045601 68.900002 136.2966
36.120899 68.900002 136.2977
36.347801 68.900002 136.2952
36.438 68.900002 136.21271
36.537552 68.900002 136.2894
36.650002 68.900002 136.29379
36.726299 68.900002 136.2892
36.801701 68.900002 136.2903
37.179298 68.900002 136.2899
37.2537 68.900002 136.29649
37.328999 68.900002 136.29761
37.443001 68.900002 136.29355
37.558102 68.900002 136.284
37.631401 68.900002 136.2962
37.7925 68.900002 136.2426
37.8699 68.900002 136.2325
37.944302 68.900002 136.23911
35.858353 69.050003 136.2885
35.972301 69.050003 136.2845
36.0485 69.050003 136.27991
36.160999 69.050003 136.2843
36.272499 69.050003 136.2942
36.347801 69.050003 136.2952
36.4231 69.050003 136.2962
36.952301 69.050003 136.2924
37.028599 69.050003 136.2878
37.1493 69.050003 136.2476
37.271 69.050003 136.2018
37.492001 69.050003 136.2328
37.648899 69.050003 136.20151
36.577702 69.199997 136.276
40.498299 59.299999 136.33099
40.2729 59.625 136.3222
40.6492 59.625 136.3331
39.859001 59.724998 136.3107
39.9711 59.724998 136.3179
37.1763 59.849998 136.30659
37.252602 59.849998 136.30209
39.665001 59.849998 136.33591
39.970001 59.849998 136.3235
40.045502 59.849998 136.32449
40.2729 59.849998 136.3222
37.4776 59.950001 136.31081
37.554001 59.950001 136.3063
37.7057 59.950001 136.3028
39.6628 59.950001 136.347
39.744701 59.950001 136.3147
36.949299 60.150002 136.3091
39.738201 60.150002 136.3481
39.854099 60.150002 136.3358
39.965599 60.150002 136.3457
40.043301 60.150002 136.33569
37.778999 60.25 136.315
37.853401 60.25 136.32159
37.926701 60.25 136.3338
39.740398 60.25 136.33701
39.896702 60.25 136.3112
40.4217 60.25 136.33549
37.177299 60.349998 136.3011
37.555 60.349998 136.3007
37.630402 60.349998 136.3018
37.856499 60.349998 136.3049
37.9277 60.349998 136.3282
37.252602 60.450001 136.30209
37.440498 60.450001 136.30756
37.555 60.450001 136.3007
37.630402 60.450001 136.3018
37.856499 60.450001 136.3049
37.9277 60.450001 136.3282
40.646999 60.450001 136.3443
40.7225 60.450001 136.34531
35.969299 60.575001 136.30119
37.929798 60.575001 136.31709
39.8158 60.575001 136.338
36.799599 60.674999 136.30141
36.875 60.674999 136.30251
37.403301 60.674999 136.3042
37.780102 60.674999 136.3094
37.8554 60.674999 136.3105
37.929798 60.674999 136.31709
39.970001 60.674999 136.3235
37.629398 60.799999 136.3073
37.856499 60.799999 136.3049
37.929798 60.799999 136.31709
39.892399 60.799999 136.3335
38.004101 60.900002 136.3237
39.890202 60.900002 136.3447
39.9711 60.900002 136.3179
37.856499 61 136.3049
37.929798 61 136.31709
38.001999 61 136.3349
37.327999 61.125 136.3031
37.403301 61.125 136.3042
37.7057 61.125 136.3028
38.042252 61.125 136.3215
39.889099 61.125 136.3502
39.9678 61.125 136.33459
34.752701 61.25 136.3571
37.931801 61.25 136.306
38.042297 61.25 136.3215
37.932899 61.375 136.3004
38.0051 61.375 136.31821
40.122002 61.375 136.32001
38.044853 61.474998 136.30756
37.630402 61.599998 136.3018
37.7057 61.599998 136.3028
38.04435 61.599998 136.31035
39.9711 61.599998 136.3179
40.197498 61.599998 136.32111
38.156898 61.849998 136.3147
39.519501 61.849998 136.30589
40.2729 61.849998 136.3222
40.3484 61.849998 136.3232
39.895599 61.950001 136.3168
36.7243 62.075001 136.3004
37.252602 62.075001 136.30209
37.327999 62.075001 136.3031
37.930801 62.075001 136.31149
38.041801 62.075001 136.32425
38.6124 62.075001 136.30431
38.083599 62.200001 136.30251
39.5928 62.200001 136.3181
40.0476 62.200001 136.3134
38.348499 62.325001 136.3006
39.666 62.325001 136.33031
39.742599 62.325001 136.32581
39.818001 62.325001 136.3269
39.9711 62.325001 136.3179
40.046501 62.325001 136.319
39.5895 62.450001 136.33479
39.895599 62.450001 136.3168
38.647449 62.575001 136.3188
39.5895 62.575001 136.33479
39.666 62.700001 136.33031
39.9678 62.700001 136.33459
41.101101 62.700001 136.3452
35.0546 62.799999 136.3557
35.131699 62.799999 136.3455
39.663898 62.799999 136.34151
39.743698 62.799999 136.3203
37.348351 62.924999 136.3983
37.4776 62.924999 136.31081
37.5397 62.924999 136.3842
37.653648 62.924999 136.38025
37.778999 62.924999 136.315
37.853401 62.924999 136.32159
38.761002 62.924999 136.3176
37.162102 63.049999 136.3846
37.252602 63.049999 136.30209
37.630402 63.049999 136.3018
37.7057 63.049999 136.3028
39.743698 63.049999 136.3203
37.084702 63.174999 136.3947
37.174301 63.174999 136.31779
37.252602 63.174999 136.30209
39.740398 63.174999 136.33701
39.892399 63.174999 136.3335
39.9678 63.174999 136.33459
40.574799 63.174999 136.32651
40.6492 63.174999 136.3331
37.250599 63.299999 136.3132
37.327 63.299999 136.3087
39.818001 63.299999 136.3269
38.081501 63.424999 136.3136
38.1548 63.424999 136.32581
40.120899 63.799999 136.32561
37.555 63.924999 136.3007
37.630402 63.924999 136.3018
39.8158 63.924999 136.338
40.159199 63.924999 136.32336
37.781101 64.050003 136.30389
37.932899 64.300003 136.3004
40.194199 64.300003 136.3378
37.7057 64.400002 136.3028
37.778999 64.525002 136.315
37.852299 64.525002 136.32719
37.931801 64.525002 136.306
36.646999 64.650002 136.3105
37.555 64.650002 136.3007
39.252251 64.650002 136.31891
39.3633 64.650002 136.3316
39.438702 64.650002 136.3327
36.647999 64.775002 136.3049
37.055702 64.775002 136.3468
37.476601 64.775002 136.31641
37.555 64.775002 136.3007
38.233299 64.775002 136.3102
38.8354 64.775002 136.3242
38.045898 64.900002 136.302
38.385101 64.900002 136.3067
38.457401 64.900002 136.32449
38.532799 64.900002 136.3255
39.0648 64.900002 136.3107
39.139099 64.900002 136.31731
39.215599 64.900002 136.31281
39.5163 64.900002 136.3226
37.05975 65.025002 136.3246
37.169201 65.025002 136.3456
37.252602 65.025002 136.30209
37.327999 65.025002 136.3031
37.780102 65.025002 136.3094
37.8554 65.025002 136.3105
37.930801 65.025002 136.31149
38.044899 65.025002 136.30756
38.159 65.025002 136.3036
38.385101 65.025002 136.3067
38.461601 65.025002 136.3022
38.647949 65.025002 136.31601
39.216702 65.025002 136.30721
39.443001 65.025002 136.31039
39.6693 65.025002 136.3136
35.894001 65.150002 136.30009
36.948299 65.150002 136.31461
37.016499 65.150002 136.35471
37.2374 65.150002 136.3856
37.356998 65.150002 136.351
38.348 65.150002 136.30341
38.536999 65.150002 136.3033
38.647949 65.150002 136.31601
38.986198 65.150002 136.32629
39.594898 65.150002 136.30701
40.044399 65.150002 136.33009
40.15535 65.150002 136.34285
36.345798 65.275002 136.3063
36.45525 65.275002 136.32735
36.564701 65.275002 136.3484
36.875 65.275002 136.30251
36.946301 65.275002 136.32581
37.012501 65.275002 136.37691
37.350349 65.275002 136.38721
37.743401 65.275002 136.30334
37.932899 65.275002 136.3004
38.3862 65.275002 136.3011
38.460499 65.275002 136.3078
38.687801 65.275002 136.3054
38.761002 65.275002 136.3176
38.837502 65.275002 136.3131
38.914001 65.275002 136.3085
39.3675 65.275002 136.3094
39.4398 65.275002 136.3271
39.514099 65.275002 136.3338
36.413101 65.400002 136.3519
36.716301 65.400002 136.34489
37.388 65.400002 136.3877
38.234402 65.400002 136.3046
38.34745 65.400002 136.3062
38.459499 65.400002 136.31329
38.534901 65.400002 136.31441
38.649551 65.400002 136.30765
38.7621 65.400002 136.312
38.836399 65.400002 136.3186
38.9506 65.400002 136.31465
39.972198 65.400002 136.3123
40.0476 65.400002 136.3134
40.1231 65.400002 136.3145
36.266499 65.525002 136.32761
36.3428 65.525002 136.323
36.492401 65.525002 136.3307
37.311699 65.525002 136.3922
37.402302 65.525002 136.3098
37.630402 65.525002 136.3018
37.7057 65.525002 136.3028
37.932899 65.525002 136.3004
38.045898 65.525002 136.302
38.459499 65.525002 136.31329
38.5359 65.525002 136.30881
38.948502 65.525002 136.32581
39.063702 65.525002 136.31619
39.290001 65.525002 136.3194
